-1199568156 154726.030272 499875.899901 2.840000 252 30 224
-1199568156 154725.719731 499875.379879 2.960000 252 30 224
-1199568156 154725.500001 499876.339846 3.270000 252 30 224
-1199568156 154725.049801 499876.739747 3.640000 252 30 224
-1199568156 154730.870120 499873.359862 2.860000 252 30 224
-1199568156 154731.189448 499872.970212 2.410000 252 30 224
-1199568156 154730.790039 499872.970212 2.030000 252 30 224
-1199568156 154730.189450 499873.379883 1.690000 252 30 224
-1199568156 154730.080078 499873.000004 1.980000 252 30 224
-1199568156 154729.999997 499872.689943 1.720000 252 30 224
-1199568156 154729.419922 499870.510251 2.360000 252 30 224
-1199568156 154729.049803 499870.609861 1.950000 252 30 224
-1199568156 154728.959958 499870.260254 1.930000 252 30 224
-1199568156 154729.080080 499872.279782 2.630000 252 30 224
-1199568156 154728.990236 499871.970218 2.630000 252 30 224
-1199568156 154728.940432 499871.770019 2.140000 252 30 224
-1199568156 154728.850587 499871.430174 1.990000 252 30 224
-1199568156 154728.750002 499871.060057 2.090000 252 30 224
-1199568156 154728.679684 499870.819822 1.740000 252 30 224
-1199568156 154728.509769 499871.729984 2.500000 252 30 224
-1199568156 154728.439451 499871.479979 1.980000 252 30 224
-1199568156 154728.360357 499871.180178 1.790000 252 30 224
-1199568156 154729.389645 499876.310062 1.890000 252 30 224
-1199568156 154728.169917 499871.749997 2.400000 252 30 224
-1199568156 154728.089846 499871.449706 2.090000 252 30 224
-1199568156 154728.009765 499871.169918 1.830000 252 30 224
-1199568156 154727.900393 499870.739744 2.360000 252 30 224
-1199568156 154729.080080 499876.790041 2.420000 252 30 224
-1199568156 154729.030276 499876.600101 1.740000 252 30 224
-1199568156 154728.900391 499876.140136 2.310000 252 30 224
-1199568156 154727.700200 499871.649906 2.490000 252 30 224
-1199568156 154727.570315 499871.169918 1.690000 252 30 224
-1199568156 154728.729488 499876.919925 2.190000 252 30 224
-1199568156 154728.370120 499875.560057 2.050000 252 30 224
-1199568156 154728.149413 499874.739743 2.660000 252 30 224
-1199568156 154728.069332 499874.459963 2.460000 252 30 224
-1199568156 154727.370122 499871.839846 2.270000 252 30 224
-1199568156 154727.280277 499871.500001 2.160000 252 30 224
-1199568156 154727.190433 499871.180178 1.940000 252 30 224
-1199568156 154727.120115 499870.919922 1.720000 252 30 224
-1199568156 154728.209957 499877.930178 2.490000 252 30 224
-1199568156 154727.669923 499877.669922 1.910000 252 30 224
-1199568156 154727.319331 499879.290038 1.910000 252 30 224
-1199568156 154727.100588 499878.459962 2.520000 252 30 224
-1199568156 154726.190435 499876.229984 2.090000 252 30 224
-1199568156 154725.820316 499874.839843 2.130000 252 30 224
-1199568156 154725.730471 499874.499998 2.010000 252 30 224
-1199568156 154726.049809 499877.300294 2.500000 252 30 224
-1199568156 154725.450197 499875.040042 2.060000 252 30 224
-1199568156 154725.490238 499876.569821 2.590000 252 30 224
-1199568156 154725.060551 499874.970216 2.330000 252 30 224
-1199568156 154724.320313 499876.419924 1.870000 252 30 224
-1199568156 154730.209964 499872.830077 1.710000 252 30 224
-1199568156 154730.139646 499873.140138 1.950000 252 30 224
-1199568156 154729.410159 499876.330076 1.740000 252 30 224
-1199568156 154729.030276 499876.149906 2.310000 252 30 224
-1199568156 154728.870114 499876.839847 2.410000 252 30 224
-1199568156 154728.799806 499877.149900 2.440000 252 30 224
-1199568156 154728.290039 499877.439939 2.370000 252 30 224
-1199568156 154728.200194 499877.819827 2.370000 252 30 224
-1199568156 154728.140626 499878.100096 2.570000 252 30 224
-1199568156 154729.109371 499872.169920 2.510000 252 30 224
-1199568156 154728.280275 499875.760256 1.880000 252 30 224
-1199568156 154727.469730 499879.260254 1.830000 252 30 224
-1199568156 154729.209966 499870.199708 1.770000 252 30 224
-1199568156 154729.149411 499870.449705 2.050000 252 30 224
-1199568156 154728.910154 499871.489749 1.990000 252 30 224
-1199568156 154728.850587 499871.749997 2.220000 252 30 224
-1199568156 154728.140626 499874.800289 2.590000 252 30 224
-1199568156 154727.979487 499875.529784 2.600000 252 30 224
-1199568156 154728.610353 499871.239745 1.850000 252 30 224
-1199568156 154728.540035 499871.529785 2.060000 252 30 224
-1199568156 154728.479492 499871.790040 2.360000 252 30 224
-1199568156 154727.830075 499874.580076 2.440000 252 30 224
-1199568156 154728.169917 499871.439944 1.950000 252 30 224
-1199568156 154728.120112 499871.680179 2.280000 252 30 224
-1199568156 154726.810550 499877.330077 1.930000 252 30 224
-1199568156 154726.390627 499877.479982 2.180000 252 30 224
-1199568156 154727.620119 499870.399900 1.880000 252 30 224
-1199568156 154727.450193 499871.129883 1.740000 252 30 224
-1199568156 154727.390625 499871.399901 2.090000 252 30 224
-1199568156 154727.309567 499871.720214 2.160000 252 30 224
-1199568156 154726.290043 499876.160157 2.200000 252 30 224
-1199568156 154727.150392 499871.020022 1.760000 252 30 224
-1199568156 154727.089848 499871.300291 2.110000 252 30 224
-1199568156 154725.830079 499876.749998 2.190000 252 30 224
-1199568156 154725.910161 499874.569825 1.940000 252 30 224
-1199568156 154725.830079 499874.890137 2.080000 252 30 224
-1199568156 154725.440433 499875.060056 2.010000 252 30 224
-1199568156 154725.110355 499874.790038 2.220000 252 30 224
-1199568156 154725.040037 499875.089847 2.350000 252 30 224
-1199568156 154724.379881 499876.470218 1.800000 252 30 224
-1199568156 154732.799809 499873.410156 1.490000 252 30 224
-1199568156 154732.629883 499872.760251 1.270000 252 30 224
-1199568156 154732.430666 499873.350100 1.160000 252 30 224
-1199568156 154732.330082 499873.000004 1.170000 252 30 224
-1199568156 154732.250000 499872.699705 0.950000 252 30 224
-1199568156 154732.140629 499873.779785 0.810000 252 30 224
-1199568156 154732.060548 499873.489745 0.690000 252 30 224
-1199568156 154731.910159 499872.919925 1.520000 252 30 224
-1199568156 154731.700192 499873.350100 1.360000 252 30 224
-1199568156 154731.620121 499873.050290 1.170000 252 30 224
-1199568156 154730.280271 499869.589846 0.760000 252 30 224
-1199568156 154730.749998 499872.810056 1.240000 252 30 224
-1199568156 154730.640627 499872.399903 1.500000 252 30 224
-1199568156 154730.600586 499872.239747 0.870000 252 30 224
-1199568156 154729.959956 499869.859864 0.900000 252 30 224
-1199568156 154729.870122 499869.550292 0.740000 252 30 224
-1199568156 154729.660155 499870.180176 0.910000 252 30 224
-1199568156 154729.950193 499872.500003 1.130000 252 30 224
-1199568156 154729.320314 499870.160155 0.830000 252 30 224
-1199568156 154728.839847 499869.819821 1.040000 252 30 224
-1199568156 154728.759766 499869.510257 0.770000 252 30 224
-1199568156 154728.549810 499870.319821 0.830000 252 30 224
-1199568156 154728.439451 499869.930179 1.110000 252 30 224
-1199568156 154728.370120 499869.649902 0.840000 252 30 224
-1199568156 154728.209957 499870.589847 1.420000 252 30 224
-1199568156 154728.140626 499870.330081 1.070000 252 30 224
-1199568156 154727.860352 499870.600099 1.550000 252 30 224
-1199568156 154727.799808 499870.410159 0.920000 252 30 224
-1199568156 154727.490233 499870.870117 1.520000 252 30 224
-1199568156 154727.349608 499870.339843 0.790000 252 30 224
-1199568156 154728.620117 499876.520023 1.060000 252 30 224
-1199568156 154728.490231 499876.020022 1.660000 252 30 224
-1199568156 154727.049807 499870.629882 1.570000 252 30 224
-1199568156 154728.230471 499876.810055 1.620000 252 30 224
-1199568156 154728.200194 499876.689942 0.850000 252 30 224
-1199568156 154726.259765 499869.459962 0.960000 252 30 224
-1199568156 154727.209959 499874.199707 1.200000 252 30 224
-1199568156 154726.020508 499869.729980 1.080000 252 30 224
-1199568156 154726.950199 499874.999999 1.470000 252 30 224
-1199568156 154726.870118 499874.689938 1.300000 252 30 224
-1199568156 154726.780273 499874.350101 1.320000 252 30 224
-1199568156 154726.680665 499873.989746 1.290000 252 30 224
-1199568156 154726.589844 499873.640139 1.330000 252 30 224
-1199568156 154725.669927 499870.220211 1.330000 252 30 224
-1199568156 154727.109375 499876.919925 1.410000 252 30 224
-1199568156 154727.040044 499876.649899 1.100000 252 30 224
-1199568156 154726.580080 499874.939943 1.050000 252 30 224
-1199568156 154726.390627 499874.250002 1.060000 252 30 224
-1199568156 154726.299806 499873.919919 0.960000 252 30 224
-1199568156 154726.790036 499877.300294 1.540000 252 30 224
-1199568156 154726.609370 499876.629885 1.650000 252 30 224
-1199568156 154726.190435 499875.050294 0.840000 252 30 224
-1199568156 154726.060549 499874.589846 1.350000 252 30 224
-1199568156 154725.959965 499874.199707 1.630000 252 30 224
-1199568156 154732.610356 499872.680173 1.160000 252 30 224
-1199568156 154732.209960 499872.890134 0.980000 252 30 224
-1199568156 154731.749996 499872.939939 1.290000 252 30 224
-1199568156 154730.879884 499873.339840 1.600000 252 30 224
-1199568156 154730.790039 499872.109864 0.820000 252 30 224
-1199568156 154730.730471 499872.350098 1.420000 252 30 224
-1199568156 154730.319335 499872.379882 0.920000 252 30 224
-1199568156 154730.280271 499872.540038 1.610000 252 30 224
-1199568156 154728.890628 499876.749998 1.380000 252 30 224
-1199568156 154730.110356 499869.569824 0.760000 252 30 224
-1199568156 154728.679684 499875.739745 0.860000 252 30 224
-1199568156 154728.639644 499875.919923 1.610000 252 30 224
-1199568156 154729.569334 499870.169924 0.910000 252 30 224
-1199568156 154728.290039 499875.699710 0.700000 252 30 224
-1199568156 154728.069332 499876.680180 0.950000 252 30 224
-1199568156 154727.540037 499878.949704 1.670000 252 30 224
-1199568156 154729.230469 499870.089846 0.820000 252 30 224
-1199568156 154727.669923 499876.830077 1.410000 252 30 224
-1199568156 154727.520511 499877.489744 1.500000 252 30 224
-1199568156 154728.790043 499870.459964 0.860000 252 30 224
-1199568156 154728.750002 499870.609861 1.520000 252 30 224
-1199568156 154727.290041 499876.919925 1.330000 252 30 224
-1199568156 154728.530272 499869.890136 1.040000 252 30 224
-1199568156 154728.379883 499870.560056 1.260000 252 30 224
-1199568156 154728.249998 499871.140135 1.650000 252 30 224
-1199568156 154727.019530 499876.430175 1.330000 252 30 224
-1199568156 154726.929685 499876.819825 1.190000 252 30 224
-1199568156 154726.860354 499877.140137 1.370000 252 30 224
-1199568156 154726.719729 499877.739749 1.590000 252 30 224
-1199568156 154727.990238 499870.540042 1.000000 252 30 224
-1199568156 154727.940434 499870.750003 1.520000 252 30 224
-1199568156 154727.129878 499874.250002 1.390000 252 30 224
-1199568156 154727.049807 499874.609860 1.390000 252 30 224
-1199568156 154726.969726 499874.979978 1.320000 252 30 224
-1199568156 154727.639646 499870.319821 0.780000 252 30 224
-1199568156 154726.860354 499873.669923 1.360000 252 30 224
-1199568156 154726.780273 499874.029789 1.200000 252 30 224
-1199568156 154726.700192 499874.339842 1.310000 252 30 224
-1199568156 154726.530276 499875.100099 0.970000 252 30 224
-1199568156 154727.339845 499870.199708 0.840000 252 30 224
-1199568156 154727.299804 499870.399900 1.540000 252 30 224
-1199568156 154727.219723 499870.739744 1.500000 252 30 224
-1199568156 154726.480472 499873.939941 1.030000 252 30 224
-1199568156 154726.390627 499874.300296 0.850000 252 30 224
-1199568156 154726.229488 499875.020021 0.850000 252 30 224
-1199568156 154726.110353 499875.529784 1.510000 252 30 224
-1199568156 154726.009769 499874.140140 0.920000 252 30 224
-1199568156 154725.969728 499874.310058 1.530000 252 30 224
-1199568156 154725.700194 499875.500000 0.970000 252 30 224
-1199568156 154726.330083 499869.510257 1.160000 252 30 224
-1199568156 154725.950190 499869.660154 1.220000 252 30 224
-1199568156 154725.889647 499869.959963 1.480000 252 30 224
-1199568156 154730.849606 499870.180176 0.300000 252 30 224
-1199568156 154731.299807 499873.419919 0.570000 252 30 224
-1199568156 154731.110354 499872.709964 0.550000 252 30 224
-1199568156 154730.209964 499869.350100 0.430000 252 30 224
-1199568156 154730.969728 499873.649901 0.640000 252 30 224
-1199568156 154730.169923 499870.669925 0.330000 252 30 224
-1199568156 154729.819331 499869.350100 0.180000 252 30 224
-1199568156 154729.740237 499869.060061 0.000000 252 30 224
-1199568156 154729.799804 499870.720212 0.060000 252 30 224
-1199568156 154729.580074 499869.910158 0.660000 252 30 224
-1199568156 154729.509767 499869.620118 0.440000 252 30 224
-1199568156 154729.419922 499869.319827 0.310000 252 30 224
-1199568156 154729.459963 499870.680177 0.060000 252 30 224
-1199568156 154729.249996 499869.899899 0.540000 252 30 224
-1199568156 154729.149411 499869.529789 0.500000 252 30 224
-1199568156 154729.070317 499869.209958 0.450000 252 30 224
-1199568156 154728.959958 499870.260254 0.580000 252 30 224
-1199568156 154728.690435 499869.270022 0.360000 252 30 224
-1199568156 154728.429688 499868.290042 0.050000 252 30 224
-1199568156 154728.290039 499869.370114 0.460000 252 30 224
-1199568156 154728.049805 499868.449709 0.090000 252 30 224
-1199568156 154728.019528 499869.890136 0.100000 252 30 224
-1199568156 154727.919920 499869.529789 0.200000 252 30 224
-1199568156 154727.839838 499869.239749 0.080000 252 30 224
-1199568156 154727.769531 499868.959961 -0.070000 252 30 224
-1199568156 154727.740230 499870.169924 0.540000 252 30 224
-1199568156 154727.679686 499869.930179 0.160000 252 30 224
-1199568156 154727.589842 499869.620118 -0.030000 252 30 224
-1199568156 154727.509771 499869.300295 -0.130000 252 30 224
-1199568156 154727.280277 499870.080076 0.510000 252 30 224
-1199568156 154727.120115 499869.499997 0.100000 252 30 224
-1199568156 154728.450191 499875.899901 0.670000 252 30 224
-1199568156 154726.850591 499869.890136 0.240000 252 30 224
-1199568156 154726.759770 499869.569824 0.060000 252 30 224
-1199568156 154726.509762 499870.399900 -0.040000 252 30 224
-1199568156 154726.419917 499870.040041 0.110000 252 30 224
-1199568156 154726.200198 499869.229979 0.470000 252 30 224
-1199568156 154726.190435 499870.370116 -0.160000 252 30 224
-1199568156 154727.399412 499876.689942 0.250000 252 30 224
-1199568156 154725.820316 499870.760255 0.500000 252 30 224
-1199568156 154725.740234 499870.470215 0.280000 252 30 224
-1199568156 154725.370115 499870.430173 0.040000 252 30 224
-1199568156 154726.139643 499876.080079 -0.190000 252 30 224
-1199568156 154726.049809 499875.739745 -0.180000 252 30 224
-1199568156 154725.919924 499875.220212 0.550000 252 30 224
-1199568156 154725.820316 499874.870116 0.490000 252 30 224
-1199568156 154725.939451 499876.910155 -0.120000 252 30 224
-1199568156 154725.569332 499875.500000 0.160000 252 30 224
-1199568156 154725.809565 499877.790035 0.480000 252 30 224
-1199568156 154732.009767 499873.739749 0.370000 252 30 224
-1199568156 154731.639648 499873.449710 0.600000 252 30 224
-1199568156 154731.410155 499872.930177 0.120000 252 30 224
-1199568156 154731.330073 499873.229979 0.250000 252 30 224
-1199568156 154731.269529 499873.499997 0.550000 252 30 224
-1199568156 154729.839845 499870.760255 0.170000 252 30 224
-1199568156 154729.849608 499868.959961 0.020000 252 30 224
-1199568156 154729.700196 499869.600097 0.320000 252 30 224
-1199568156 154729.640629 499869.859864 0.650000 252 30 224
-1199568156 154729.459963 499870.660155 0.290000 252 30 224
-1199568156 154729.429685 499869.250001 0.070000 252 30 224
-1199568156 154729.350591 499869.560062 0.180000 252 30 224
-1199568156 154729.299800 499869.800296 0.560000 252 30 224
-1199568156 154729.129885 499870.550294 0.320000 252 30 224
-1199568156 154728.999999 499869.520019 0.460000 252 30 224
-1199568156 154728.850587 499870.199708 0.490000 252 30 224
-1199568156 154728.830073 499868.620117 0.660000 252 30 224
-1199568156 154728.639644 499869.430179 0.220000 252 30 224
-1199568156 154728.410161 499870.410159 0.470000 252 30 224
-1199568156 154728.509769 499868.290042 0.230000 252 30 224
-1199568156 154728.429688 499868.629879 0.220000 252 30 224
-1199568156 154728.209957 499869.600097 0.490000 252 30 224
-1199568156 154728.120112 499869.989747 0.230000 252 30 224
-1199568156 154728.069332 499868.439939 -0.050000 252 30 224
-1199568156 154728.000001 499868.739749 0.140000 252 30 224
-1199568156 154727.910156 499869.129880 0.020000 252 30 224
-1199568156 154727.819335 499869.499997 0.050000 252 30 224
-1199568156 154727.750004 499869.810058 0.040000 252 30 224
-1199568156 154727.689450 499870.060055 0.390000 252 30 224
-1199568156 154726.150394 499876.749998 -0.180000 252 30 224
-1199568156 154727.450193 499869.729980 0.010000 252 30 224
-1199568156 154727.410152 499869.890136 0.580000 252 30 224
-1199568156 154726.139643 499875.390138 0.610000 252 30 224
-1199568156 154726.009769 499875.949707 -0.180000 252 30 224
-1199568156 154727.060547 499869.580076 -0.060000 252 30 224
-1199568156 154727.000003 499869.839842 0.250000 252 30 224
-1199568156 154725.820316 499874.949705 0.390000 252 30 224
-1199568156 154725.749998 499875.239744 0.650000 252 30 224
-1199568156 154726.770510 499869.290036 0.200000 252 30 224
-1199568156 154726.689452 499869.649902 0.170000 252 30 224
-1199568156 154726.620121 499869.949704 0.210000 252 30 224
-1199568156 154726.520513 499870.379886 -0.180000 252 30 224
-1199568156 154725.509764 499874.750003 0.480000 252 30 224
-1199568156 154725.339849 499875.479979 0.280000 252 30 224
-1199568156 154726.100590 499870.479978 -0.020000 252 30 224
-1199568156 154726.030272 499870.770017 0.260000 252 30 224
-1199568156 154725.009771 499875.209961 0.480000 252 30 224
-1199568156 154726.049809 499869.229979 0.260000 252 30 224
-1199568156 154725.740234 499870.580077 0.400000 252 30 224
-1199568156 154725.390629 499869.999998 0.150000 252 30 224
-1199568156 154731.040036 499872.449708 -1.250000 252 30 224
-1199568156 154728.650394 499869.109866 -0.360000 252 30 224
-1199568156 154730.749998 499872.290041 -1.270000 252 30 224
-1199568156 154728.240235 499869.470214 -0.350000 252 30 224
-1199568156 154726.419917 499870.819822 -0.440000 252 30 224
-1199568156 154726.160157 499870.209960 -0.460000 252 30 224
-1199568156 154730.640627 499872.430176 -1.400000 252 30 224
-1199568155 154729.379881 499882.229979 8.750000 102 44 14
-1199568155 154728.040042 499881.939939 8.880000 102 44 14
-1199568155 154727.669923 499883.290037 8.780000 102 44 14
-1199568155 154726.700192 499882.689944 8.690000 102 44 14
-1199568155 154726.509762 499881.899904 8.710000 102 44 14
-1199568155 154727.950197 499884.379879 8.700000 102 44 14
-1199568155 154727.639646 499885.739747 8.790000 102 44 14
-1199568155 154728.969722 499885.379881 8.920000 102 44 14
-1199568155 154727.219723 499885.739747 9.050000 102 44 14
-1199568155 154727.520511 499885.760250 8.980000 102 44 14
-1199568155 154727.280277 499885.550296 9.010000 102 44 14
-1199568155 154727.129878 499885.390140 8.980000 102 44 14
-1199568155 154728.919918 499885.189941 8.890000 102 44 14
-1199568155 154729.180665 499884.609862 8.910000 102 44 14
-1199568155 154729.169925 499884.129883 8.930000 102 44 14
-1199568155 154729.020513 499884.770018 9.080000 102 44 14
-1199568155 154728.890628 499885.080079 8.690000 102 44 14
-1199568155 154727.430666 499885.419924 8.830000 102 44 14
-1199568155 154729.099607 499884.310060 8.730000 102 44 14
-1199568155 154727.339845 499885.279781 8.810000 102 44 14
-1199568155 154727.709964 499885.439938 8.670000 102 44 14
-1199568155 154728.120112 499885.270019 9.190000 102 44 14
-1199568155 154728.180667 499885.189941 9.130000 102 44 14
-1199568155 154728.180667 499885.000001 8.890000 102 44 14
-1199568155 154728.109373 499884.930175 8.890000 102 44 14
-1199568155 154728.040042 499884.669919 8.700000 102 44 14
-1199568155 154728.140626 499883.569825 9.010000 102 44 14
-1199568155 154728.129887 499883.419920 8.870000 102 44 14
-1199568155 154727.319331 499883.540041 8.790000 102 44 14
-1199568155 154727.379886 499883.580077 8.850000 102 44 14
-1199568155 154727.290041 499883.260253 8.730000 102 44 14
-1199568155 154727.750004 499883.580077 8.960000 102 44 14
-1199568155 154727.390625 499883.250002 8.670000 102 44 14
-1199568155 154727.750004 499883.489747 8.990000 102 44 14
-1199568155 154728.200194 499883.310059 8.770000 102 44 14
-1199568155 154726.830077 499882.029787 8.690000 102 44 14
-1199568155 154727.150392 499882.410156 8.900000 102 44 14
-1199568155 154727.649409 499882.120117 9.000000 102 44 14
-1199568155 154727.719727 499881.810056 8.860000 102 44 14
-1199568155 154727.769531 499882.080082 8.880000 102 44 14
-1199568155 154728.270512 499883.010257 8.720000 102 44 14
-1199568155 154728.059569 499882.169922 8.680000 102 44 14
-1199568155 154728.140626 499881.800294 8.800000 102 44 14
-1199568155 154728.219731 499882.589845 9.090000 102 44 14
-1199568155 154728.140626 499882.310057 8.910000 102 44 14
-1199568155 154728.370120 499882.569823 9.050000 102 44 14
-1199568155 154728.450191 499882.229979 8.950000 102 44 14
-1199568155 154728.530272 499882.160160 9.140000 102 44 14
-1199568155 154729.709960 499883.479977 7.830000 102 44 14
-1199568155 154729.299800 499881.970212 8.320000 102 44 14
-1199568155 154729.450199 499884.270017 8.240000 102 44 14
-1199568155 154729.370118 499883.970216 8.090000 102 44 14
-1199568155 154729.280273 499883.649903 8.020000 102 44 14
-1199568155 154729.059567 499882.839841 8.390000 102 44 14
-1199568155 154729.020513 499882.699707 7.670000 102 44 14
-1199568155 154728.900391 499882.250000 8.090000 102 44 14
-1199568155 154728.790043 499881.810056 8.480000 102 44 14
-1199568155 154729.299800 499885.069828 8.460000 102 44 14
-1199568155 154729.160151 499884.540035 7.790000 102 44 14
-1199568155 154728.870114 499883.459963 8.090000 102 44 14
-1199568155 154728.750002 499882.989746 8.520000 102 44 14
-1199568155 154728.669921 499882.699707 8.460000 102 44 14
-1199568155 154728.469728 499881.949709 8.550000 102 44 14
-1199568155 154728.309565 499881.350098 8.260000 102 44 14
-1199568155 154728.809570 499884.800291 8.530000 102 44 14
-1199568155 154728.719725 499884.470217 8.440000 102 44 14
-1199568155 154728.669921 499884.270017 7.830000 102 44 14
-1199568155 154728.469728 499883.529782 8.030000 102 44 14
-1199568155 154727.979487 499881.699705 8.600000 102 44 14
-1199568155 154728.610353 499885.229984 8.470000 102 44 14
-1199568155 154728.450191 499884.620114 8.250000 102 44 14
-1199568155 154728.270512 499883.970216 8.070000 102 44 14
-1199568155 154728.049805 499883.149902 8.620000 102 44 14
-1199568155 154727.370122 499880.589841 8.110000 102 44 14
-1199568155 154728.349606 499885.839847 8.050000 102 44 14
-1199568155 154727.950197 499884.330082 8.660000 102 44 14
-1199568155 154728.000001 499884.550295 7.790000 102 44 14
-1199568155 154727.890630 499884.120120 8.180000 102 44 14
-1199568155 154727.599605 499883.040041 8.380000 102 44 14
-1199568155 154727.499997 499882.680175 8.510000 102 44 14
-1199568155 154727.419926 499882.350100 8.510000 102 44 14
-1199568155 154727.280277 499881.839847 7.710000 102 44 14
-1199568155 154727.000003 499880.800292 7.810000 102 44 14
-1199568155 154727.839838 499885.310062 8.660000 102 44 14
-1199568155 154727.759768 499885.020023 8.530000 102 44 14
-1199568155 154727.490233 499884.010251 8.480000 102 44 14
-1199568155 154727.209959 499882.949703 8.580000 102 44 14
-1199568155 154727.030270 499882.290035 8.590000 102 44 14
-1199568155 154726.959963 499882.029787 8.150000 102 44 14
-1199568155 154726.689452 499881.010253 8.020000 102 44 14
-1199568155 154726.599607 499880.680179 8.050000 102 44 14
-1199568155 154727.370122 499885.189941 8.330000 102 44 14
-1199568155 154727.299804 499884.930175 8.170000 102 44 14
-1199568155 154726.629884 499882.410156 8.550000 102 44 14
-1199568155 154726.269529 499881.069821 8.380000 102 44 14
-1199568155 154726.179684 499880.739746 8.360000 102 44 14
-1199568155 154727.089848 499885.249998 8.120000 102 44 14
-1199568155 154727.000003 499884.919923 8.090000 102 44 14
-1199568155 154726.419917 499882.729980 8.580000 102 44 14
-1199568155 154725.860356 499882.120117 7.670000 102 44 14
-1199568155 154729.730473 499883.589847 7.950000 102 44 14
-1199568155 154729.650392 499883.959964 7.890000 102 44 14
-1199568155 154729.589848 499884.220212 8.220000 102 44 14
-1199568155 154729.270510 499883.689938 7.850000 102 44 14
-1199568155 154729.200192 499884.010251 8.000000 102 44 14
-1199568155 154729.330077 499881.910156 8.450000 102 44 14
-1199568155 154729.249996 499882.260252 8.350000 102 44 14
-1199568155 154729.080080 499882.979984 8.330000 102 44 14
-1199568155 154728.990236 499883.370115 8.040000 102 44 14
-1199568155 154728.859374 499883.949705 8.580000 102 44 14
-1199568155 154728.759766 499884.399901 8.120000 102 44 14
-1199568155 154728.700198 499884.629884 8.450000 102 44 14
-1199568155 154728.429688 499885.800293 8.060000 102 44 14
-1199568155 154728.719725 499882.680175 8.410000 102 44 14
-1199568155 154728.639644 499883.010257 8.530000 102 44 14
-1199568155 154728.530272 499883.520020 7.890000 102 44 14
-1199568155 154728.360357 499884.209961 8.100000 102 44 14
-1199568155 154728.249998 499884.720213 8.580000 102 44 14
-1199568155 154728.009765 499884.129883 8.340000 102 44 14
-1199568155 154728.270512 499881.270020 8.150000 102 44 14
-1199568155 154728.209957 499881.510254 8.590000 102 44 14
-1199568155 154727.810548 499883.239743 8.590000 102 44 14
-1199568155 154727.629882 499884.029783 8.280000 102 44 14
-1199568155 154727.549801 499884.379879 8.230000 102 44 14
-1199568155 154727.450193 499884.800291 7.920000 102 44 14
-1199568155 154727.379886 499885.100101 8.090000 102 44 14
-1199568155 154727.540037 499882.589845 8.540000 102 44 14
-1199568155 154727.459956 499882.949703 8.480000 102 44 14
-1199568155 154727.309567 499881.680173 7.710000 102 44 14
-1199568155 154727.190433 499882.239749 8.280000 102 44 14
-1199568155 154727.019530 499882.949703 8.180000 102 44 14
-1199568155 154727.100588 499880.870119 7.870000 102 44 14
-1199568155 154726.959963 499881.470211 8.070000 102 44 14
-1199568155 154726.889644 499881.800294 8.180000 102 44 14
-1199568155 154726.749996 499882.379884 8.540000 102 44 14
-1199568155 154726.680665 499882.699707 8.590000 102 44 14
-1199568155 154726.870118 499880.330075 8.050000 102 44 14
-1199568155 154726.780273 499880.709962 7.970000 102 44 14
-1199568155 154726.719729 499880.979980 8.200000 102 44 14
-1199568155 154726.639648 499881.290041 8.310000 102 44 14
-1199568155 154726.580080 499881.580081 8.530000 102 44 14
-1199568155 154726.410154 499880.760257 7.980000 102 44 14
-1199568155 154725.950190 499881.060059 7.740000 102 44 14
-1199568155 154729.200192 499883.370115 7.630000 102 44 14
-1199568155 154729.450199 499885.640137 7.570000 102 44 14
-1199568155 154729.389645 499885.390140 7.170000 102 44 14
-1199568155 154729.330077 499885.169920 6.700000 102 44 14
-1199568155 154728.549810 499882.250000 7.350000 102 44 14
-1199568155 154728.439451 499881.850099 7.630000 102 44 14
-1199568155 154728.280275 499881.239747 7.240000 102 44 14
-1199568155 154728.200194 499880.939938 7.180000 102 44 14
-1199568155 154728.080083 499880.500001 7.600000 102 44 14
-1199568155 154727.990238 499880.169919 7.470000 102 44 14
-1199568155 154728.990236 499885.479981 7.140000 102 44 14
-1199568155 154728.399410 499883.279786 7.660000 102 44 14
-1199568155 154728.000001 499881.800294 6.900000 102 44 14
-1199568155 154727.879879 499881.330077 7.400000 102 44 14
-1199568155 154727.810548 499881.089842 7.040000 102 44 14
-1199568155 154727.700200 499880.660157 7.440000 102 44 14
-1199568155 154727.620119 499880.350096 7.270000 102 44 14
-1199568155 154728.669921 499885.470218 7.520000 102 44 14
-1199568155 154728.219731 499883.779787 7.440000 102 44 14
-1199568155 154728.140626 499883.499999 7.200000 102 44 14
-1199568155 154728.059569 499883.199708 7.050000 102 44 14
-1199568155 154727.330081 499880.449707 7.300000 102 44 14
-1199568155 154728.290039 499885.609864 7.480000 102 44 14
-1199568155 154728.219731 499885.359860 7.180000 102 44 14
-1199568155 154727.780271 499883.729981 7.010000 102 44 14
-1199568155 154727.580078 499882.970214 7.360000 102 44 14
-1199568155 154727.509771 499882.729980 7.020000 102 44 14
-1199568155 154727.390625 499882.270022 7.370000 102 44 14
-1199568155 154727.919920 499885.640137 7.370000 102 44 14
-1199568155 154727.830075 499885.310062 7.370000 102 44 14
-1199568155 154727.250000 499883.120119 6.680000 102 44 14
-1199568155 154726.540040 499880.470217 7.620000 102 44 14
-1199568155 154726.830077 499883.189938 6.680000 102 44 14
-1199568155 154726.740232 499882.859863 6.790000 102 44 14
-1199568155 154726.509762 499881.989744 7.510000 102 44 14
-1199568155 154726.900395 499884.550295 6.760000 102 44 14
-1199568155 154726.299806 499882.300295 7.630000 102 44 14
-1199568155 154726.120117 499881.620116 7.560000 102 44 14
-1199568155 154726.020508 499881.270020 7.620000 102 44 14
-1199568155 154726.169921 499883.270016 7.100000 102 44 14
-1199568155 154726.100590 499883.020019 6.880000 102 44 14
-1199568155 154726.009769 499882.660153 6.840000 102 44 14
-1199568155 154725.780275 499881.819826 7.520000 102 44 14
-1199568155 154725.690430 499881.479981 7.570000 102 44 14
-1199568155 154725.440433 499881.949709 7.570000 102 44 14
-1199568155 154725.360352 499881.689943 7.410000 102 44 14
-1199568155 154729.350591 499885.249998 6.710000 102 44 14
-1199568155 154729.290037 499885.529786 7.110000 102 44 14
-1199568155 154729.230469 499885.790042 7.360000 102 44 14
-1199568155 154729.330077 499883.439942 7.570000 102 44 14
-1199568155 154729.089844 499884.479979 7.540000 102 44 14
-1199568155 154729.129885 499882.770023 7.620000 102 44 14
-1199568155 154728.799806 499882.319827 7.250000 102 44 14
-1199568155 154728.759766 499882.510256 7.660000 102 44 14
-1199568155 154728.089846 499885.419924 7.270000 102 44 14
-1199568155 154728.009765 499885.739747 7.350000 102 44 14
-1199568155 154728.530272 499881.890134 7.550000 102 44 14
-1199568155 154728.450191 499882.239749 7.630000 102 44 14
-1199568155 154728.230471 499883.180175 6.680000 102 44 14
-1199568155 154728.169917 499883.439942 7.030000 102 44 14
-1199568155 154728.129887 499883.609860 7.570000 102 44 14
-1199568155 154728.049805 499883.939943 7.560000 102 44 14
-1199568155 154727.879879 499884.680178 7.510000 102 44 14
-1199568155 154728.360357 499880.850097 7.120000 102 44 14
-1199568155 154728.280275 499881.189942 7.200000 102 44 14
-1199568155 154728.120112 499881.879883 7.100000 102 44 14
-1199568155 154728.040042 499880.419923 7.410000 102 44 14
-1199568155 154727.959960 499880.770019 7.380000 102 44 14
-1199568155 154727.860352 499881.220215 7.050000 102 44 14
-1199568155 154727.810548 499881.410155 7.620000 102 44 14
-1199568155 154727.620119 499882.260252 7.100000 102 44 14
-1199568155 154727.459956 499882.939941 7.180000 102 44 14
-1199568155 154727.040044 499884.770018 6.770000 102 44 14
-1199568155 154727.610356 499880.379880 7.310000 102 44 14
-1199568155 154727.509771 499880.830076 6.920000 102 44 14
-1199568155 154727.230473 499880.290040 7.390000 102 44 14
-1199568155 154727.160155 499880.609863 7.510000 102 44 14
-1199568155 154726.570317 499881.620116 7.000000 102 44 14
-1199568155 154726.250002 499883.020019 6.950000 102 44 14
-1199568155 154726.430668 499880.640136 6.970000 102 44 14
-1199568155 154726.290043 499881.260258 7.450000 102 44 14
-1199568155 154726.229488 499881.540038 7.560000 102 44 14
-1199568155 154726.139643 499881.899904 7.500000 102 44 14
-1199568155 154726.060549 499882.250000 7.590000 102 44 14
-1199568155 154725.939451 499882.790036 6.750000 102 44 14
-1199568155 154725.860356 499881.439938 7.600000 102 44 14
-1199568155 154725.780275 499881.810056 7.470000 102 44 14
-1199568155 154725.410156 499881.729978 7.340000 102 44 14
-1199568155 154730.209964 499885.359860 5.860000 102 44 14
-1199568155 154729.839845 499883.989748 5.800000 102 44 14
-1199568155 154729.249996 499884.899902 6.370000 102 44 14
-1199568155 154728.830073 499883.319821 5.960000 102 44 14
-1199568155 154728.410161 499883.330080 6.130000 102 44 14
-1199568155 154728.330079 499883.010257 6.090000 102 44 14
-1199568155 154728.759766 499885.800293 6.210000 102 44 14
-1199568155 154728.490231 499886.399904 5.850000 102 44 14
-1199568155 154727.910156 499884.209961 6.470000 102 44 14
-1199568155 154727.740230 499883.589847 6.220000 102 44 14
-1199568155 154727.359372 499882.180174 6.350000 102 44 14
-1199568155 154727.620119 499884.500000 6.550000 102 44 14
-1199568155 154727.530274 499884.160156 6.560000 102 44 14
-1199568155 154727.370122 499883.580077 6.090000 102 44 14
-1199568155 154727.009767 499882.229979 5.980000 102 44 14
-1199568155 154726.889644 499881.770021 6.470000 102 44 14
-1199568155 154727.349608 499885.140136 5.950000 102 44 14
-1199568155 154727.129878 499884.300290 6.580000 102 44 14
-1199568155 154727.339845 499886.189943 5.830000 102 44 14
-1199568155 154727.129878 499885.430175 6.080000 102 44 14
-1199568155 154727.040044 499885.069828 6.100000 102 44 14
-1199568155 154726.759770 499884.020021 6.330000 102 44 14
-1199568155 154726.669925 499883.709960 6.130000 102 44 14
-1199568155 154726.280269 499882.250000 6.410000 102 44 14
-1199568155 154727.000003 499886.379883 5.790000 102 44 14
-1199568155 154726.589844 499884.859866 6.340000 102 44 14
-1199568155 154726.530276 499884.629884 5.940000 102 44 14
-1199568155 154726.410154 499884.180177 6.400000 102 44 14
-1199568155 154726.559566 499886.169921 5.700000 102 44 14
-1199568155 154725.549805 499882.410156 5.750000 102 44 14
-1199568155 154725.419920 499883.449704 6.220000 102 44 14
-1199568155 154725.339849 499883.129881 6.290000 102 44 14
-1199568155 154725.160159 499882.470213 6.040000 102 44 14
-1199568155 154725.089841 499882.209957 5.780000 102 44 14
-1199568155 154725.139645 499883.669925 6.560000 102 44 14
-1199568155 154725.020510 499883.199708 5.770000 102 44 14
-1199568155 154724.930666 499882.859863 5.730000 102 44 14
-1199568155 154730.209964 499885.310062 5.830000 102 44 14
-1199568155 154729.999997 499883.989748 5.810000 102 44 14
-1199568155 154729.750000 499885.069828 5.700000 102 44 14
-1199568155 154729.690433 499885.290041 6.100000 102 44 14
-1199568155 154729.459963 499884.800291 5.960000 102 44 14
-1199568155 154729.410159 499885.010253 6.380000 102 44 14
-1199568155 154729.249996 499883.779787 6.230000 102 44 14
-1199568155 154728.940432 499885.140136 6.200000 102 44 14
-1199568155 154728.769529 499885.859860 6.250000 102 44 14
-1199568155 154729.030276 499883.199708 5.930000 102 44 14
-1199568155 154728.930668 499883.640133 5.720000 102 44 14
-1199568155 154728.580076 499883.260253 6.110000 102 44 14
-1199568155 154727.530274 499884.470217 6.560000 102 44 14
-1199568155 154727.089848 499886.370121 5.800000 102 44 14
-1199568155 154727.209959 499883.999999 5.710000 102 44 14
-1199568155 154727.190433 499884.100099 6.570000 102 44 14
-1199568155 154727.109375 499884.470217 6.640000 102 44 14
-1199568155 154726.939449 499885.209963 6.240000 102 44 14
-1199568155 154726.680665 499886.310056 5.990000 102 44 14
-1199568155 154727.209959 499882.120117 5.980000 102 44 14
-1199568155 154726.820314 499883.810060 6.070000 102 44 14
-1199568155 154726.759770 499884.060056 6.300000 102 44 14
-1199568155 154726.669925 499884.470217 6.150000 102 44 14
-1199568155 154726.580080 499884.850096 6.020000 102 44 14
-1199568155 154726.530276 499885.060058 6.430000 102 44 14
-1199568155 154726.749996 499882.390135 5.870000 102 44 14
-1199568155 154726.680665 499882.669923 6.160000 102 44 14
-1199568155 154726.299806 499882.760253 6.620000 102 44 14
-1199568155 154726.110353 499883.600098 6.060000 102 44 14
-1199568155 154725.599609 499882.569823 5.950000 102 44 14
-1199568155 154725.540042 499882.830079 6.170000 102 44 14
-1199568155 154725.479487 499883.100097 6.340000 102 44 14
-1199568155 154725.390629 499883.499999 6.230000 102 44 14
-1199568155 154725.319335 499883.800290 6.500000 102 44 14
-1199568155 154725.310548 499882.129879 5.750000 102 44 14
-1199568155 154725.240230 499882.459962 5.980000 102 44 14
-1199568155 154725.070315 499883.160154 5.790000 102 44 14
-1199568155 154726.929685 499887.040040 5.890000 102 44 14
-1199568155 154730.559569 499885.470218 5.530000 102 44 14
-1199568155 154730.469724 499885.129884 5.510000 102 44 14
-1199568155 154730.410157 499884.939945 4.810000 102 44 14
-1199568155 154730.209964 499884.169926 5.320000 102 44 14
-1199568155 154730.120119 499883.839843 5.120000 102 44 14
-1199568155 154730.049801 499883.569825 4.970000 102 44 14
-1199568155 154730.129883 499885.060058 5.660000 102 44 14
-1199568155 154730.060552 499884.830075 5.110000 102 44 14
-1199568155 154729.969731 499884.479979 5.210000 102 44 14
-1199568155 154729.769527 499883.729981 5.460000 102 44 14
-1199568155 154729.890625 499885.959960 5.580000 102 44 14
-1199568155 154729.589848 499886.169921 5.480000 102 44 14
-1199568155 154729.519530 499885.899903 5.150000 102 44 14
-1199568155 154729.200192 499886.300294 5.320000 102 44 14
-1199568155 154728.530272 499883.790038 5.650000 102 44 14
-1199568155 154727.669923 499881.749999 4.720000 102 44 14
-1199568155 154728.099609 499884.930175 4.940000 102 44 14
-1199568155 154728.009765 499884.609862 4.900000 102 44 14
-1199568155 154727.719727 499883.529782 5.150000 102 44 14
-1199568155 154727.469730 499882.589845 4.700000 102 44 14
-1199568155 154728.200194 499886.669922 4.770000 102 44 14
-1199568155 154726.589844 499880.680179 5.420000 102 44 14
-1199568155 154727.769531 499886.709957 5.250000 102 44 14
-1199568155 154727.570315 499885.959960 5.260000 102 44 14
-1199568155 154726.589844 499882.290035 4.980000 102 44 14
-1199568155 154726.490235 499881.930177 4.950000 102 44 14
-1199568155 154726.290043 499881.169920 5.340000 102 44 14
-1199568155 154727.589842 499887.140139 4.830000 102 44 14
-1199568155 154727.269527 499885.930176 5.440000 102 44 14
-1199568155 154727.200196 499885.699704 5.010000 102 44 14
-1199568155 154726.620121 499883.510250 5.490000 102 44 14
-1199568155 154726.390627 499882.669923 4.740000 102 44 14
-1199568155 154726.160157 499881.790042 5.550000 102 44 14
-1199568155 154726.070312 499881.439938 5.440000 102 44 14
-1199568155 154725.979491 499881.120115 5.530000 102 44 14
-1199568155 154727.219723 499887.229980 5.060000 102 44 14
-1199568155 154727.140628 499886.930178 4.930000 102 44 14
-1199568155 154726.919922 499886.089843 5.570000 102 44 14
-1199568155 154726.850591 499885.819825 5.370000 102 44 14
-1199568155 154726.770510 499885.550296 5.070000 102 44 14
-1199568155 154726.309570 499883.810060 4.960000 102 44 14
-1199568155 154726.100590 499883.050292 5.310000 102 44 14
-1199568155 154726.009769 499882.689944 5.380000 102 44 14
-1199568155 154725.939451 499882.419919 5.160000 102 44 14
-1199568155 154725.860356 499882.140138 4.930000 102 44 14
-1199568155 154726.810550 499887.100096 4.760000 102 44 14
-1199568155 154726.629884 499886.419926 4.690000 102 44 14
-1199568155 154726.480472 499885.870120 5.500000 102 44 14
-1199568155 154726.150394 499884.629884 5.050000 102 44 14
-1199568155 154726.049809 499884.270017 5.050000 102 44 14
-1199568155 154725.950190 499883.870116 5.250000 102 44 14
-1199568155 154725.479487 499882.129879 5.650000 102 44 14
-1199568155 154725.410156 499881.859861 5.290000 102 44 14
-1199568155 154725.299808 499881.470211 5.440000 102 44 14
-1199568155 154725.740234 499884.629884 5.600000 102 44 14
-1199568155 154725.690430 499884.459957 5.050000 102 44 14
-1199568155 154725.559568 499883.979978 5.440000 102 44 14
-1199568155 154725.290034 499882.939941 5.580000 102 44 14
-1199568155 154725.009771 499881.919926 5.550000 102 44 14
-1199568155 154725.350589 499884.430174 4.970000 102 44 14
-1199568155 154725.240230 499884.040042 5.070000 102 44 14
-1199568155 154725.110355 499883.540041 5.630000 102 44 14
-1199568155 154724.680669 499881.959961 5.120000 102 44 14
-1199568155 154724.509766 499881.290041 5.010000 102 44 14
-1199568155 154724.219729 499883.060062 4.690000 102 44 14
-1199568155 154723.940431 499883.550293 5.170000 102 44 14
-1199568155 154723.879887 499883.350094 4.680000 102 44 14
-1199568155 154730.640627 499884.790040 4.990000 102 44 14
-1199568155 154730.569332 499885.109863 5.150000 102 44 14
-1199568155 154730.519528 499885.339846 5.610000 102 44 14
-1199568155 154730.330075 499884.779788 5.130000 102 44 14
-1199568155 154730.270508 499885.060058 5.490000 102 44 14
-1199568155 154730.120119 499885.699704 5.650000 102 44 14
-1199568155 154730.020511 499886.120116 5.460000 102 44 14
-1199568155 154730.099605 499883.520020 4.880000 102 44 14
-1199568155 154730.020511 499883.859865 4.980000 102 44 14
-1199568155 154729.879886 499884.500000 5.190000 102 44 14
-1199568155 154729.540044 499885.949708 4.980000 102 44 14
-1199568155 154729.790041 499883.370115 4.700000 102 44 14
-1199568155 154729.669919 499883.879886 5.540000 102 44 14
-1199568155 154729.109371 499886.310056 5.350000 102 44 14
-1199568155 154729.249996 499883.770017 4.890000 102 44 14
-1199568155 154728.230471 499886.660160 4.710000 102 44 14
-1199568155 154727.860352 499886.370121 4.870000 102 44 14
-1199568155 154727.620119 499887.419920 4.880000 102 44 14
-1199568155 154728.140626 499883.580077 5.080000 102 44 14
-1199568155 154727.890630 499884.629884 4.850000 102 44 14
-1199568155 154727.419926 499886.699706 5.060000 102 44 14
-1199568155 154727.259763 499887.379884 5.170000 102 44 14
-1199568155 154727.620119 499884.040042 5.410000 102 44 14
-1199568155 154727.209959 499885.830077 5.260000 102 44 14
-1199568155 154727.150392 499886.100095 5.590000 102 44 14
-1199568155 154726.950199 499886.949710 4.850000 102 44 14
-1199568155 154726.870118 499885.489743 5.150000 102 44 14
-1199568155 154726.799800 499885.779782 5.370000 102 44 14
-1199568155 154726.609370 499886.609866 4.800000 102 44 14
-1199568155 154727.230473 499882.040039 4.900000 102 44 14
-1199568155 154726.490235 499883.510250 5.410000 102 44 14
-1199568155 154726.299806 499884.350096 4.780000 102 44 14
-1199568155 154726.229488 499884.649905 5.030000 102 44 14
-1199568155 154726.700192 499881.060059 5.170000 102 44 14
-1199568155 154726.469722 499882.040039 5.340000 102 44 14
-1199568155 154726.280269 499882.859863 4.890000 102 44 14
-1199568155 154726.219725 499883.140140 5.140000 102 44 14
-1199568155 154726.150394 499883.430172 5.310000 102 44 14
-1199568155 154725.979491 499884.169926 5.160000 102 44 14
-1199568155 154725.899410 499884.500000 5.190000 102 44 14
-1199568155 154726.410154 499880.720214 5.380000 102 44 14
-1199568155 154726.339847 499881.050296 5.380000 102 44 14
-1199568155 154726.250002 499881.449708 5.250000 102 44 14
-1199568155 154725.939451 499882.760253 5.560000 102 44 14
-1199568155 154725.849606 499883.149902 5.340000 102 44 14
-1199568155 154725.660153 499883.989748 4.930000 102 44 14
-1199568155 154725.919924 499881.220215 5.600000 102 44 14
-1199568155 154725.830079 499881.609865 5.570000 102 44 14
-1199568155 154725.719731 499882.080082 5.070000 102 44 14
-1199568155 154725.669927 499882.279784 5.620000 102 44 14
-1199568155 154725.450197 499881.560059 5.370000 102 44 14
-1199568155 154725.370115 499881.899904 5.330000 102 44 14
-1199568155 154725.139645 499882.879884 5.630000 102 44 14
-1199568155 154725.070315 499881.419925 4.860000 102 44 14
-1199568155 154724.780277 499881.310055 4.840000 102 44 14
-1199568155 154724.629878 499881.959961 5.070000 102 44 14
-1199568155 154724.370117 499883.060062 4.670000 102 44 14
-1199568155 154724.299799 499883.350094 4.810000 102 44 14
-1199568155 154724.249995 499883.589847 5.270000 102 44 14
-1199568155 154723.990235 499882.879884 4.730000 102 44 14
-1199568155 154723.959958 499882.989746 5.600000 102 44 14
-1199568155 154729.899412 499883.029781 4.220000 102 44 14
-1199568155 154729.819331 499882.709958 4.260000 102 44 14
-1199568155 154729.969731 499884.500000 3.750000 102 44 14
-1199568155 154729.640629 499883.270016 4.620000 102 44 14
-1199568155 154729.580074 499883.020019 4.110000 102 44 14
-1199568155 154729.479490 499882.669923 4.130000 102 44 14
-1199568155 154729.410159 499884.160156 4.490000 102 44 14
-1199568155 154729.109371 499887.120118 3.870000 102 44 14
-1199568155 154729.009762 499886.760252 3.850000 102 44 14
-1199568155 154728.540035 499884.989750 4.000000 102 44 14
-1199568155 154727.599605 499881.479981 4.570000 102 44 14
-1199568155 154728.669921 499887.080075 4.440000 102 44 14
-1199568155 154727.410152 499882.359862 4.370000 102 44 14
-1199568155 154727.620119 499884.520022 3.710000 102 44 14
-1199568155 154727.439453 499885.500002 4.530000 102 44 14
-1199568155 154727.080074 499884.140134 4.300000 102 44 14
-1199568155 154726.730469 499882.830079 4.170000 102 44 14
-1199568155 154726.219725 499882.040039 4.530000 102 44 14
-1199568155 154727.290041 499887.470214 4.120000 102 44 14
-1199568155 154726.669925 499885.180179 3.750000 102 44 14
-1199568155 154726.200198 499883.410158 3.850000 102 44 14
-1199568155 154726.730469 499886.819827 4.600000 102 44 14
-1199568155 154726.570317 499886.220216 4.130000 102 44 14
-1199568155 154726.400391 499885.580080 3.980000 102 44 14
-1199568155 154726.319333 499885.270019 3.690000 102 44 14
-1199568155 154725.919924 499883.779787 4.350000 102 44 14
-1199568155 154725.040037 499880.489750 3.930000 102 44 14
-1199568155 154726.490235 499887.470214 3.670000 102 44 14
-1199568155 154726.020508 499885.689942 4.080000 102 44 14
-1199568155 154725.929687 499885.359860 3.960000 102 44 14
-1199568155 154725.860356 499885.089842 3.740000 102 44 14
-1199568155 154725.269531 499882.890136 4.360000 102 44 14
-1199568155 154724.990233 499881.850099 4.420000 102 44 14
-1199568155 154724.839845 499881.290041 4.050000 102 44 14
-1199568155 154726.150394 499887.430179 3.680000 102 44 14
-1199568155 154726.060549 499887.120118 3.700000 102 44 14
-1199568155 154725.319335 499884.350096 3.840000 102 44 14
-1199568155 154725.030274 499883.260253 4.140000 102 44 14
-1199568155 154724.950192 499882.939941 3.960000 102 44 14
-1199568155 154724.859371 499882.640139 3.800000 102 44 14
-1199568155 154724.640628 499881.779783 4.370000 102 44 14
-1199568155 154724.569334 499881.540038 4.020000 102 44 14
-1199568155 154724.490240 499881.249999 3.830000 102 44 14
-1199568155 154725.120119 499885.080079 4.350000 102 44 14
-1199568155 154725.040037 499884.800291 4.190000 102 44 14
-1199568155 154724.950192 499884.449706 4.130000 102 44 14
-1199568155 154724.740236 499883.669925 4.440000 102 44 14
-1199568155 154724.669918 499883.399899 4.080000 102 44 14
-1199568155 154724.549807 499882.970214 4.380000 102 44 14
-1199568155 154724.479489 499882.689944 4.260000 102 44 14
-1199568155 154724.400395 499882.390135 4.170000 102 44 14
-1199568155 154724.690432 499884.830075 4.430000 102 44 14
-1199568155 154724.330077 499883.499999 4.350000 102 44 14
-1199568155 154724.129884 499882.739750 4.570000 102 44 14
-1199568155 154723.790043 499882.999998 4.530000 102 44 14
-1199568155 154723.120112 499880.510253 3.810000 102 44 14
-1199568155 154722.290040 499883.510250 3.740000 102 44 14
-1199568155 154730.479487 499884.129883 3.770000 102 44 14
-1199568155 154730.410157 499884.439944 3.860000 102 44 14
-1199568155 154730.360353 499884.680178 4.170000 102 44 14
-1199568155 154730.240230 499882.919920 4.560000 102 44 14
-1199568155 154729.320314 499886.910157 3.800000 102 44 14
-1199568155 154729.919926 499882.810058 4.290000 102 44 14
-1199568155 154729.819331 499883.239743 4.000000 102 44 14
-1199568155 154728.940432 499887.040040 3.730000 102 44 14
-1199568155 154729.519530 499882.620118 4.090000 102 44 14
-1199568155 154728.379883 499887.540041 3.720000 102 44 14
-1199568155 154727.000003 499886.739749 4.340000 102 44 14
-1199568155 154727.709964 499881.859861 4.520000 102 44 14
-1199568155 154727.599605 499882.319827 4.020000 102 44 14
