-1203716447 153984.620121 495732.139893 0.340000 14 91 222
-1203716447 153985.199708 495733.219972 0.330000 14 91 222
-1203716447 153985.810060 495734.409914 0.670000 14 91 222
-1203716447 153987.249996 495737.110110 0.690000 14 91 222
-1203716447 153989.169921 495740.639892 0.080000 14 91 222
-1203716447 153989.220213 495740.780027 0.410000 14 91 222
-1203716447 153989.350099 495741.010010 0.420000 14 91 222
-1203716447 153990.310056 495742.830076 0.590000 14 91 222
-1203716447 153990.459956 495743.110105 0.540000 14 91 222
-1203716447 153990.689938 495743.489992 0.230000 14 91 222
-1203716447 153990.759768 495743.669922 0.510000 14 91 222
-1203716447 153985.229985 495732.530032 -0.120000 14 91 222
-1203716447 153985.379885 495732.889890 0.540000 14 91 222
-1203716447 153985.540037 495733.189940 0.420000 14 91 222
-1203716447 153985.629882 495733.370118 0.590000 14 91 222
-1203716447 153986.100097 495734.239988 0.490000 14 91 222
-1203716447 153986.459965 495734.870121 0.190000 14 91 222
-1203716447 153989.399903 495740.360104 0.010000 14 91 222
-1203716447 153990.780271 495742.959959 0.140000 14 91 222
-1203716447 153990.850101 495743.129886 0.490000 14 91 222
-1203716447 153991.000001 495743.419925 0.490000 14 91 222
-1203716447 153991.129887 495743.659911 0.540000 14 91 222
-1203716447 153985.759768 495733.100100 0.600000 14 91 222
-1203716447 153985.890141 495733.350097 0.600000 14 91 222
-1203716447 153986.049805 495733.639895 0.550000 14 91 222
-1203716447 153986.330079 495734.159910 0.420000 14 91 222
-1203716447 153986.680172 495734.860110 0.790000 14 91 222
-1203716447 153991.010253 495742.889892 0.130000 14 91 222
-1203716447 153991.070309 495743.050048 0.520000 14 91 222
-1203716447 153991.200194 495743.300053 0.640000 14 91 222
-1203716447 153991.509769 495743.780032 -0.140000 14 91 222
-1203716447 153991.569825 495743.939940 0.150000 14 91 222
-1203716447 153985.699712 495732.729982 0.790000 14 91 222
-1203716447 153985.870115 495733.020022 0.570000 14 91 222
-1203716447 153985.989749 495733.260008 0.660000 14 91 222
-1203716447 153986.149901 495733.540036 0.600000 14 91 222
-1203716447 153991.219732 495742.959959 -0.060000 14 91 222
-1203716447 153991.319828 495743.249999 0.720000 14 91 222
-1203716447 153991.680173 495743.879883 0.340000 14 91 222
-1203716447 153986.129886 495732.909912 0.600000 14 91 222
-1203716447 153986.310053 495733.219972 0.440000 14 91 222
-1203716447 153988.719731 495737.729983 0.330000 14 91 222
-1203716447 153990.770020 495741.610110 0.660000 14 91 222
-1203716447 153986.419924 495732.689939 0.070000 14 91 222
-1203716447 153986.520020 495732.899901 0.290000 14 91 222
-1203716447 153986.910154 495733.639895 0.340000 14 91 222
-1203716447 153986.989747 495733.820065 0.620000 14 91 222
-1203716447 153987.350103 495734.449949 0.290000 14 91 222
-1203716447 153988.020023 495735.729980 0.390000 14 91 222
-1203716447 153988.169923 495735.999998 0.340000 14 91 222
-1203716447 153988.299809 495736.260013 0.460000 14 91 222
-1203716447 153989.990229 495739.419918 0.480000 14 91 222
-1203716447 153991.049806 495741.449954 0.790000 14 91 222
-1203716447 153992.140136 495743.370120 -0.180000 14 91 222
-1203716447 153992.229981 495743.560060 0.030000 14 91 222
-1203716447 153992.370118 495743.820067 -0.030000 14 91 222
-1203716447 153992.409671 495743.949950 0.350000 14 91 222
-1203716447 153986.649906 495732.639894 0.460000 14 91 222
-1203716447 153987.140136 495733.500001 0.060000 14 91 222
-1203716447 153987.200192 495733.679930 0.470000 14 91 222
-1203716447 153987.449711 495734.149899 0.520000 14 91 222
-1203716447 153987.999997 495735.189944 0.640000 14 91 222
-1203716447 153990.089848 495739.120116 0.770000 14 91 222
-1203716447 153992.390133 495743.330077 -0.090000 14 91 222
-1203716447 153992.520019 495743.570071 -0.060000 14 91 222
-1203716447 153992.640141 495743.810056 -0.060000 14 91 222
-1203716447 153986.770017 495732.560056 0.460000 14 91 222
-1203716447 153987.160151 495733.239994 -0.050000 14 91 222
-1203716447 153987.229981 495733.409912 0.270000 14 91 222
-1203716447 153987.340329 495733.629885 0.450000 14 91 222
-1203716447 153987.479977 495733.899903 0.440000 14 91 222
-1203716447 153987.570310 495734.090091 0.710000 14 91 222
-1203716447 153987.709959 495734.360109 0.740000 14 91 222
-1203716447 153987.979982 495734.870121 0.790000 14 91 222
-1203716447 153990.040044 495738.709964 0.500000 14 91 222
-1203716447 153990.149904 495738.919925 0.630000 14 91 222
-1203716447 153992.500004 495743.239988 0.000000 14 91 222
-1203716447 153992.660156 495743.520017 -0.150000 14 91 222
-1203716447 153987.419922 495733.280029 0.180000 14 91 222
-1203716447 153987.490229 495733.439945 0.440000 14 91 222
-1203716447 153987.570310 495733.620115 0.720000 14 91 222
-1203716447 153989.439943 495737.050046 0.010000 14 91 222
-1203716447 153989.580081 495737.310061 0.070000 14 91 222
-1203716447 153990.350097 495738.780031 0.240000 14 91 222
-1203716447 153992.760252 495743.270020 0.120000 14 91 222
-1203716447 153992.890138 495743.530028 0.180000 14 91 222
-1203716447 153993.060064 495743.830078 0.110000 14 91 222
-1203716447 153987.750000 495733.300051 0.510000 14 91 222
-1203716447 153987.910152 495733.590090 0.460000 14 91 222
-1203716447 153988.629887 495734.860110 -0.180000 14 91 222
-1203716447 153989.879881 495737.270018 0.320000 14 91 222
-1203716447 153992.699708 495742.550047 0.320000 14 91 222
-1203716447 153992.800293 495742.760009 0.490000 14 91 222
-1203716447 153993.180175 495743.419925 0.060000 14 91 222
-1203716447 153993.320312 495743.679932 0.060000 14 91 222
-1203716447 153993.510253 495744.010007 -0.180000 14 91 222
-1203716447 153987.939941 495733.149905 0.420000 14 91 222
-1203716447 153988.109867 495733.429934 0.270000 14 91 222
-1203716447 153988.270019 495733.810062 0.790000 14 91 222
-1203716447 153991.520021 495739.870114 0.580000 14 91 222
-1203716447 153991.649906 495740.120118 0.610000 14 91 222
-1203716447 153992.800293 495742.260008 0.480000 14 91 222
-1203716447 153993.580083 495743.679932 0.130000 14 91 222
-1203716447 153993.770024 495743.989993 -0.140000 14 91 222
-1203716447 153988.020023 495732.939944 -0.200000 14 91 222
-1203716447 153988.040038 495733.030033 0.290000 14 91 222
-1203716447 153988.219727 495733.340086 0.070000 14 91 222
-1203716447 153991.759766 495740.040040 0.650000 14 91 222
-1203716447 153993.899899 495743.949950 -0.160000 14 91 222
-1203716447 153993.990232 495744.159912 0.070000 14 91 222
-1203716447 153988.390141 495732.949954 -0.140000 14 91 222
-1203716447 153988.620112 495733.419923 0.180000 14 91 222
-1203716447 153988.649902 495733.530026 0.630000 14 91 222
-1203716447 153988.819828 495733.820065 0.440000 14 91 222
-1203716447 153988.959965 495734.090091 0.470000 14 91 222
-1203716447 153989.080076 495734.330077 0.640000 14 91 222
-1203716447 153989.220213 495734.590084 0.650000 14 91 222
-1203716447 153993.890135 495743.330077 0.510000 14 91 222
-1203716447 153994.040036 495743.600095 0.490000 14 91 222
-1203716447 153994.310058 495744.040039 -0.030000 14 91 222
-1203716447 153994.479985 495744.350100 -0.180000 14 91 222
-1203716447 153994.580081 495744.560062 0.000000 14 91 222
-1203716447 153989.149906 495733.709963 0.340000 14 91 222
-1203716447 153989.290043 495733.969970 0.380000 14 91 222
-1203716447 153989.379888 495734.169921 0.610000 14 91 222
-1203716447 153989.620121 495734.639889 0.780000 14 91 222
-1203716447 153991.629880 495738.379881 0.620000 14 91 222
-1203716447 153992.470215 495739.959962 0.670000 14 91 222
-1203716447 153994.149906 495743.050048 0.200000 14 91 222
-1203716447 153994.299807 495743.409914 0.780000 14 91 222
-1203716447 153994.560055 495743.820067 0.210000 14 91 222
-1203716447 153994.749996 495744.139890 -0.010000 14 91 222
-1203716447 153994.879882 495744.389895 -0.060000 14 91 222
-1203716447 153995.009767 495744.649902 0.060000 14 91 222
-1203716447 153989.609859 495733.989991 0.180000 14 91 222
-1203716447 153989.719729 495734.199953 0.260000 14 91 222
-1203716447 153989.819826 495734.419925 0.420000 14 91 222
-1203716447 153989.919922 495734.620116 0.640000 14 91 222
-1203716447 153991.780269 495738.110104 0.650000 14 91 222
-1203716447 153995.020019 495744.090085 -0.140000 14 91 222
-1203716447 153995.140141 495744.340089 0.030000 14 91 222
-1203716447 153995.299805 495744.620118 -0.060000 14 91 222
-1203716447 153989.729981 495733.899903 -0.100000 14 91 222
-1203716447 153989.830077 495734.100094 0.040000 14 91 222
-1203716447 153989.919922 495734.290042 0.300000 14 91 222
-1203716447 153989.970214 495734.439939 0.750000 14 91 222
-1203716447 153991.830073 495737.929934 0.650000 14 91 222
-1203716447 153992.080081 495738.409913 0.790000 14 91 222
-1203716447 153995.209960 495744.159912 -0.180000 14 91 222
-1203716447 153995.290041 495744.340089 0.160000 14 91 222
-1203716447 153995.469731 495744.639891 -0.100000 14 91 222
-1203716447 153989.939937 495733.840087 0.120000 14 91 222
-1203716447 153990.060059 495734.070070 0.230000 14 91 222
-1203716447 153990.250000 495734.399903 0.060000 14 91 222
-1203716447 153990.310056 495734.560060 0.410000 14 91 222
-1203716447 153995.439942 495744.129880 0.040000 14 91 222
-1203716447 153990.089848 495733.520023 0.140000 14 91 222
-1203716447 153990.300293 495733.879881 -0.150000 14 91 222
-1203716447 153990.390137 495734.080080 0.110000 14 91 222
-1203716447 153990.520023 495734.330077 0.260000 14 91 222
-1203716447 153990.560064 495734.469971 0.660000 14 91 222
-1203716447 153993.060064 495739.139889 0.600000 14 91 222
-1203716447 153995.419927 495743.500003 0.070000 14 91 222
-1203716447 153995.680175 495743.989993 0.190000 14 91 222
-1203716447 153995.879880 495744.330079 -0.160000 14 91 222
-1203716447 153990.439941 495733.669920 -0.080000 14 91 222
-1203716447 153990.580078 495733.929935 -0.100000 14 91 222
-1203716447 153990.689938 495734.149899 0.140000 14 91 222
-1203716447 153990.689938 495734.229977 0.730000 14 91 222
-1203716447 153993.379880 495739.250000 0.620000 14 91 222
-1203716447 153995.640135 495743.399904 -0.150000 14 91 222
-1203716447 153995.780272 495743.659911 -0.140000 14 91 222
-1203716447 153995.909669 495743.899904 -0.060000 14 91 222
-1203716447 153996.040043 495744.149901 -0.040000 14 91 222
-1203716447 153990.490234 495733.399902 -0.130000 14 91 222
-1203716447 153990.649897 495733.699952 -0.160000 14 91 222
-1203716447 153990.790035 495733.959959 -0.070000 14 91 222
-1203716447 153990.830075 495734.090091 0.350000 14 91 222
-1203716447 153992.669919 495737.520022 0.250000 14 91 222
-1203716447 153993.580083 495739.280032 0.550000 14 91 222
-1203716447 153996.260250 495744.219968 -0.090000 14 91 222
-1203716447 153991.029780 495733.800051 -0.150000 14 91 222
-1203716447 153991.109861 495733.979981 0.120000 14 91 222
-1203716447 153991.149902 495734.120115 0.560000 14 91 222
-1203716447 153992.810056 495737.239993 0.640000 14 91 222
-1203716447 153993.810054 495739.110106 0.630000 14 91 222
-1203716447 153995.799809 495742.830076 0.620000 14 91 222
-1203716447 153996.239747 495743.560060 -0.140000 14 91 222
-1203716447 153991.600102 495734.120115 0.000000 14 91 222
-1203716447 153991.640132 495734.280031 0.470000 14 91 222
-1203716447 153994.149906 495738.979982 0.610000 14 91 222
-1203716447 153996.340332 495742.979981 -0.200000 14 91 222
-1203716447 153996.359858 495743.090091 0.290000 14 91 222
-1203716447 153991.830073 495734.050048 0.430000 14 91 222
-1203716447 153991.919918 495734.260009 0.670000 14 91 222
-1203716447 153994.359863 495738.790042 0.440000 14 91 222
-1203716447 153994.459959 495739.020017 0.660000 14 91 222
-1203716447 153994.589844 495739.260010 0.740000 14 91 222
-1203716447 153996.720214 495743.159910 -0.060000 14 91 222
-1203716447 153991.959959 495733.969970 0.070000 14 91 222
-1203716447 153991.989748 495734.090091 0.580000 14 91 222
-1203716447 153992.080081 495734.280031 0.750000 14 91 222
-1203716447 153992.419922 495734.899904 0.580000 14 91 222
-1203716447 153993.209964 495736.399899 0.760000 14 91 222
-1203716447 153994.540040 495738.870120 0.610000 14 91 222
-1203716447 153994.660152 495739.110106 0.720000 14 91 222
-1203716447 153994.919923 495739.520018 0.150000 14 91 222
-1203716447 153996.879878 495743.179931 -0.050000 14 91 222
-1203716447 153992.179689 495733.919924 0.160000 14 91 222
-1203716447 153992.310063 495734.159910 0.150000 14 91 222
-1203716447 153992.449711 495734.429928 0.210000 14 91 222
-1203716447 153992.509767 495734.590084 0.590000 14 91 222
-1203716447 153995.049808 495739.320067 0.430000 14 91 222
-1203716447 153996.249999 495741.610110 0.720000 14 91 222
-1203716447 153996.509770 495742.030033 0.180000 14 91 222
-1203716447 153996.729977 495742.399902 -0.190000 14 91 222
-1203716447 153997.029789 495742.949949 -0.190000 14 91 222
-1203716447 153992.760252 495734.320066 0.010000 14 91 222
-1203716447 153992.919927 495734.629886 -0.110000 14 91 222
-1203716447 153992.979982 495734.780032 0.230000 14 91 222
-1203716447 153993.040038 495734.929929 0.590000 14 91 222
-1203716447 153994.939937 495738.500002 0.730000 14 91 222
-1203716447 153995.189945 495738.909914 0.230000 14 91 222
-1203716447 153996.310054 495741.020020 0.260000 14 91 222
-1203716447 153996.439940 495741.260006 0.290000 14 91 222
-1203716447 153996.509770 495741.449954 0.650000 14 91 222
-1203716447 153997.089845 495742.429934 -0.180000 14 91 222
-1203716447 153993.140134 495734.570070 -0.100000 14 91 222
-1203716447 153993.140134 495734.649900 0.520000 14 91 222
-1203716447 153996.439940 495740.800048 0.250000 14 91 222
-1203716447 153996.590328 495741.070066 0.160000 14 91 222
-1203716447 153996.699711 495741.280028 0.350000 14 91 222
-1203716447 153993.219728 495734.449949 0.470000 14 91 222
-1203716447 153993.709958 495735.409916 0.790000 14 91 222
-1203716447 153993.890135 495735.719969 0.620000 14 91 222
-1203716447 153995.270016 495738.249998 0.130000 14 91 222
-1203716447 153995.459957 495738.590091 -0.080000 14 91 222
-1203716447 153995.439942 495738.639896 0.630000 14 91 222
-1203716447 153995.750005 495739.209964 0.560000 14 91 222
-1203716447 153995.840327 495739.399904 0.730000 14 91 222
-1203716447 153996.640132 495740.840091 0.230000 14 91 222
-1203716447 153996.739752 495741.060055 0.490000 14 91 222
-1203716447 153996.839848 495741.280028 0.700000 14 91 222
-1203716447 153997.439938 495742.290040 -0.090000 14 91 222
-1203716447 153993.549806 495734.429928 0.220000 14 91 222
-1203716447 153993.609861 495734.600095 0.670000 14 91 222
-1203716447 153993.719732 495734.810056 0.750000 14 91 222
-1203716447 153993.909673 495735.139890 0.510000 14 91 222
-1203716447 153994.080077 495735.449951 0.320000 14 91 222
-1203716447 153994.180173 495735.659912 0.550000 14 91 222
-1203716447 153994.320310 495735.909909 0.520000 14 91 222
-1203716447 153994.459959 495736.169924 0.510000 14 91 222
-1203716447 153994.600096 495736.429931 0.530000 14 91 222
-1203716447 153995.540038 495738.139895 0.050000 14 91 222
-1203716447 153995.620120 495738.320065 0.310000 14 91 222
-1203716447 153995.680175 495738.479981 0.700000 14 91 222
-1203716447 153995.930172 495738.899904 0.230000 14 91 222
-1203716447 153996.739752 495740.429931 0.420000 14 91 222
-1203716447 153996.949708 495740.790037 0.150000 14 91 222
-1203716447 153997.029789 495740.979977 0.480000 14 91 222
-1203716447 153993.899899 495734.320066 0.000000 14 91 222
-1203716447 153993.979980 495734.500003 0.360000 14 91 222
-1203716447 153994.060062 495734.689943 0.610000 14 91 222
-1203716447 153994.320310 495735.100096 -0.020000 14 91 222
-1203716447 153994.459959 495735.360111 0.000000 14 91 222
-1203716447 153994.569829 495735.600097 0.200000 14 91 222
-1203716447 153994.770022 495735.929930 -0.130000 14 91 222
-1203716447 153994.830078 495736.090087 0.190000 14 91 222
-1203716447 153994.949712 495736.320070 0.370000 14 91 222
-1203716447 153995.040034 495736.520020 0.560000 14 91 222
-1203716447 153995.299805 495737.010010 0.660000 14 91 222
-1203716447 153995.979976 495738.229984 0.190000 14 91 222
-1203716447 153996.120113 495738.489991 0.180000 14 91 222
-1203716447 153996.239747 495738.739988 0.340000 14 91 222
-1203716447 153996.790044 495739.770022 0.370000 14 91 222
-1203716447 153996.949708 495740.060061 0.300000 14 91 222
-1203716447 153997.109860 495740.350101 0.140000 14 91 222
-1203716447 153997.229982 495740.590087 0.300000 14 91 222
-1203716447 153994.199711 495734.290042 -0.110000 14 91 222
-1203716447 153994.290044 495734.479982 0.110000 14 91 222
-1203716447 153994.320310 495734.610106 0.540000 14 91 222
-1203716447 153994.500000 495734.919926 0.380000 14 91 222
-1203716447 153994.729981 495735.300046 -0.010000 14 91 222
-1203716447 153994.870118 495735.560061 0.060000 14 91 222
-1203716447 153995.040034 495735.860104 -0.120000 14 91 222
-1203716447 153995.120115 495736.050052 0.180000 14 91 222
-1203716447 153995.290041 495736.350094 0.090000 14 91 222
-1203716447 153995.399901 495736.580077 0.260000 14 91 222
-1203716447 153996.490232 495738.649899 0.380000 14 91 222
-1203716447 153996.550288 495738.810055 0.730000 14 91 222
-1203716447 153997.279786 495740.080075 0.050000 14 91 222
-1203716447 153994.330073 495734.209964 -0.170000 14 91 222
-1203716447 153995.020019 495735.510008 -0.190000 14 91 222
-1203716447 153995.160156 495735.760012 -0.170000 14 91 222
-1203716447 153995.290041 495736.020019 -0.090000 14 91 222
-1203716447 153995.439942 495736.300048 -0.130000 14 91 222
-1203716447 153995.520023 495736.489988 0.130000 14 91 222
-1203716447 153995.859865 495737.080078 -0.110000 14 91 222
-1203716447 153995.989750 495737.340085 -0.090000 14 91 222
-1203716447 153996.520021 495738.360108 0.190000 14 91 222
-1203716447 153996.600103 495738.540037 0.410000 14 91 222
-1203716447 153995.659672 495736.239991 -0.150000 14 91 222
-1203716447 153996.080083 495737.030032 -0.170000 14 91 222
-1203716447 153996.189943 495737.249996 -0.090000 14 91 222
-1203716447 153996.770018 495738.310062 -0.200000 14 91 222
-1203716447 153996.770018 495738.389892 0.340000 14 91 222
-1203716447 153996.910155 495738.649899 0.330000 14 91 222
-1203716447 153995.169919 495734.669921 -0.120000 14 91 222
-1203716447 153976.589838 495741.520021 0.350000 14 91 222
-1203716447 153976.600101 495741.300049 0.130000 14 91 222
-1203716447 153976.620116 495741.070066 -0.190000 14 91 222
-1203716447 153976.600101 495740.389895 0.240000 14 91 222
-1203716447 153976.609864 495740.139891 0.120000 14 91 222
-1203716447 153976.850098 495741.439943 0.300000 14 91 222
-1203716447 153976.850098 495741.169925 0.300000 14 91 222
-1203716447 153976.839846 495740.790037 0.510000 14 91 222
-1203716447 153976.850098 495740.510009 0.460000 14 91 222
-1203716447 153976.859861 495740.270023 0.320000 14 91 222
-1203716447 153976.879887 495740.070072 0.060000 14 91 222
-1203716447 153976.859861 495738.520016 0.420000 14 91 222
-1203716447 153976.870112 495738.000001 0.360000 14 91 222
-1203716447 153976.859861 495737.629884 0.580000 14 91 222
-1203716447 153976.870112 495737.389890 0.400000 14 91 222
-1203716447 153977.020024 495741.989990 0.390000 14 91 222
-1203716447 153977.040039 495741.800050 0.100000 14 91 222
-1203716447 153977.029787 495741.449954 0.310000 14 91 222
-1203716447 153977.020024 495741.179928 0.360000 14 91 222
-1203716447 153977.029787 495740.909910 0.300000 14 91 222
-1203716447 153977.029787 495740.600098 0.300000 14 91 222
-1203716447 153977.029787 495740.310058 0.360000 14 91 222
-1203716447 153977.050290 495740.100097 0.120000 14 91 222
-1203716447 153977.029787 495738.800052 0.570000 14 91 222
-1203716447 153977.040039 495738.510013 0.460000 14 91 222
-1203716447 153977.020024 495738.169920 0.670000 14 91 222
-1203716447 153977.040039 495737.949948 0.490000 14 91 222
-1203716447 153977.040039 495737.649905 0.500000 14 91 222
-1203716447 153977.050290 495737.409912 0.350000 14 91 222
-1203716447 153977.069828 495737.489990 0.070000 14 91 222
-1203716447 153977.040039 495737.050046 0.590000 14 91 222
-1203716447 153977.209965 495742.010011 0.670000 14 91 222
-1203716447 153977.229980 495741.800050 0.320000 14 91 222
-1203716447 153977.229980 495741.520021 0.310000 14 91 222
-1203716447 153977.240231 495741.250003 0.250000 14 91 222
-1203716447 153977.259769 495741.040042 -0.040000 14 91 222
-1203716447 153977.229980 495740.590087 0.390000 14 91 222
-1203716447 153977.249995 495740.370115 0.240000 14 91 222
-1203716447 153977.219728 495739.360110 0.690000 14 91 222
-1203716447 153977.280272 495739.590085 -0.130000 14 91 222
-1203716447 153977.270020 495739.290043 0.000000 14 91 222
-1203716447 153977.249995 495738.620115 0.310000 14 91 222
-1203716447 153977.229980 495738.209963 0.730000 14 91 222
-1203716447 153977.240231 495737.949948 0.580000 14 91 222
-1203716447 153977.240231 495737.699951 0.580000 14 91 222
-1203716447 153977.240231 495737.389890 0.610000 14 91 222
-1203716447 153977.249995 495737.100099 0.580000 14 91 222
-1203716447 153977.290035 495736.989989 -0.050000 14 91 222
-1203716447 153977.560058 495742.469969 0.350000 14 91 222
-1203716447 153977.560058 495742.209962 0.300000 14 91 222
-1203716447 153977.560058 495741.879880 0.320000 14 91 222
-1203716447 153977.580073 495741.649904 0.100000 14 91 222
-1203716447 153977.570310 495741.340084 0.290000 14 91 222
-1203716447 153977.580073 495741.409911 0.040000 14 91 222
-1203716447 153977.540043 495740.929931 0.740000 14 91 222
-1203716447 153977.589847 495741.169925 -0.090000 14 91 222
-1203716447 153977.540043 495740.600098 0.760000 14 91 222
-1203716447 153977.580073 495740.479984 0.130000 14 91 222
-1203716447 153977.560058 495738.620115 0.740000 14 91 222
-1203716447 153977.570310 495738.360108 0.540000 14 91 222
-1203716447 153977.600099 495738.169920 0.150000 14 91 222
-1203716447 153977.580073 495737.800051 0.500000 14 91 222
-1203716447 153977.600099 495737.570068 0.230000 14 91 222
-1203716447 153977.589847 495737.189940 0.410000 14 91 222
-1203716447 153977.770025 495742.459958 0.540000 14 91 222
-1203716447 153977.790040 495742.260008 0.350000 14 91 222
-1203716447 153977.800291 495741.969968 0.190000 14 91 222
-1203716447 153977.760251 495741.540043 0.760000 14 91 222
-1203716447 153977.770025 495741.260006 0.730000 14 91 222
-1203716447 153977.779788 495740.699949 0.630000 14 91 222
-1203716447 153977.800291 495740.510009 0.280000 14 91 222
-1203716447 153977.790040 495739.510007 0.570000 14 91 222
-1203716447 153977.819829 495738.820066 0.130000 14 91 222
-1203716447 153977.819829 495738.500002 0.220000 14 91 222
-1203716447 153977.830081 495738.260009 0.140000 14 91 222
-1203716447 153977.830081 495737.689940 0.160000 14 91 222
-1203716447 153977.800291 495737.270018 0.610000 14 91 222
-1203716447 153977.859859 495736.969967 -0.180000 14 91 222
-1203716447 153977.939940 495742.060057 0.460000 14 91 222
-1203716447 153977.939940 495741.739993 0.470000 14 91 222
-1203716447 153977.919925 495741.389889 0.740000 14 91 222
-1203716447 153977.929689 495741.110109 0.700000 14 91 222
-1203716447 153977.939940 495740.870116 0.520000 14 91 222
-1203716447 153977.939940 495740.590087 0.540000 14 91 222
-1203716447 153977.950192 495740.350101 0.420000 14 91 222
-1203716447 153977.950192 495739.810057 0.490000 14 91 222
-1203716447 153977.999996 495739.409915 -0.200000 14 91 222
-1203716447 153978.009770 495736.580077 -0.110000 14 91 222
-1203716447 153978.220214 495742.790041 0.150000 14 91 222
-1203716447 153978.189937 495742.050046 0.790000 14 91 222
-1203716447 153978.199711 495741.800050 0.670000 14 91 222
-1203716447 153978.209963 495741.550046 0.520000 14 91 222
-1203716447 153978.199711 495741.250003 0.650000 14 91 222
-1203716447 153978.199711 495740.979977 0.630000 14 91 222
-1203716447 153978.209963 495740.729981 0.520000 14 91 222
-1203716447 153978.220214 495740.459963 0.490000 14 91 222
-1203716447 153978.209963 495739.550050 0.640000 14 91 222
-1203716447 153978.259767 495739.459961 -0.060000 14 91 222
-1203716447 153978.259767 495738.610105 0.010000 14 91 222
-1203716447 153978.259767 495738.280030 0.100000 14 91 222
-1203716447 153978.250003 495736.489988 0.350000 14 91 222
-1203716447 153978.600097 495742.850098 0.400000 14 91 222
-1203716447 153978.609860 495742.090089 0.200000 14 91 222
-1203716447 153978.600097 495741.419922 0.520000 14 91 222
-1203716447 153978.600097 495739.659912 0.740000 14 91 222
-1203716447 153978.649901 495739.590085 -0.030000 14 91 222
-1203716447 153978.609860 495738.199952 0.650000 14 91 222
-1203716447 153978.620122 495737.080078 0.640000 14 91 222
-1203716447 153978.899897 495743.830078 -0.120000 14 91 222
-1203716447 153978.890134 495743.479982 0.150000 14 91 222
-1203716447 153978.859868 495743.090091 0.510000 14 91 222
-1203716447 153978.890134 495742.340086 0.230000 14 91 222
-1203716447 153978.899897 495742.090089 0.000000 14 91 222
-1203716447 153978.870119 495741.389889 0.560000 14 91 222
-1203716447 153978.870119 495740.409909 0.760000 14 91 222
-1203716447 153978.890134 495737.600100 0.690000 14 91 222
-1203716447 153979.149905 495743.870121 -0.140000 14 91 222
-1203716447 153979.149905 495743.260010 -0.030000 14 91 222
-1203716447 153979.129879 495742.249997 0.390000 14 91 222
-1203716447 153979.120116 495741.939944 0.490000 14 91 222
-1203716447 153979.129879 495741.639894 0.470000 14 91 222
-1203716447 153979.149905 495740.889896 0.220000 14 91 222
-1203716447 153979.120116 495740.429931 0.760000 14 91 222
-1203716447 153979.149905 495740.310058 0.190000 14 91 222
-1203716447 153979.159668 495739.159911 0.200000 14 91 222
-1203716447 153979.159668 495737.699951 0.400000 14 91 222
-1203716447 153979.149905 495736.770017 0.560000 14 91 222
-1203716447 153979.149905 495736.469974 0.610000 14 91 222
-1203716447 153979.169920 495736.219970 0.390000 14 91 222
-1203716447 153979.390138 495743.229977 -0.160000 14 91 222
-1203716447 153979.350098 495742.419923 0.570000 14 91 222
-1203716447 153979.359861 495742.219973 0.300000 14 91 222
-1203716447 153979.359861 495741.879880 0.470000 14 91 222
-1203716447 153979.379887 495738.100101 0.530000 14 91 222
-1203716447 153979.410153 495738.000001 -0.010000 14 91 222
-1203716447 153979.370113 495737.179929 0.740000 14 91 222
-1203716447 153979.379887 495736.959964 0.520000 14 91 222
-1203716447 153979.390138 495736.709960 0.440000 14 91 222
-1203716447 153979.390138 495736.439942 0.440000 14 91 222
-1203716447 153979.689939 495743.939940 0.230000 14 91 222
-1203716447 153979.700191 495743.679932 0.210000 14 91 222
-1203716447 153979.709965 495743.469971 -0.030000 14 91 222
-1203716447 153979.719728 495739.929930 0.220000 14 91 222
-1203716447 153979.719728 495737.219972 0.570000 14 91 222
-1203716447 153979.919921 495743.639889 0.100000 14 91 222
-1203716447 153979.919921 495743.350098 0.140000 14 91 222
-1203716447 153979.890132 495742.580080 0.630000 14 91 222
-1203716447 153979.890132 495742.290040 0.700000 14 91 222
-1203716447 153979.919921 495736.479977 0.790000 14 91 222
-1203716447 153979.919921 495736.209959 0.750000 14 91 222
-1203716447 153980.060058 495743.429928 0.160000 14 91 222
-1203716447 153980.049807 495743.090091 0.300000 14 91 222
-1203716447 153980.040043 495742.739987 0.540000 14 91 222
-1203716447 153980.030269 495742.409913 0.730000 14 91 222
-1203716447 153980.049807 495742.199951 0.450000 14 91 222
-1203716447 153980.049807 495741.879880 0.580000 14 91 222
-1203716447 153980.100099 495735.629880 0.430000 14 91 222
-1203716447 153980.319829 495743.649900 -0.060000 14 91 222
-1203716447 153980.319829 495742.429934 0.120000 14 91 222
-1203716447 153980.290040 495741.959958 0.680000 14 91 222
-1203716447 153980.300292 495741.679929 0.570000 14 91 222
-1203716447 153980.319829 495741.500000 0.200000 14 91 222
-1203716447 153980.310055 495737.100099 0.770000 14 91 222
-1203716447 153980.339844 495736.070065 0.460000 14 91 222
-1203716447 153980.350096 495735.830079 0.320000 14 91 222
-1203716447 153980.699711 495741.629883 0.330000 14 91 222
-1203716447 153980.740229 495735.659912 0.280000 14 91 222
-1203716447 153980.740229 495735.379884 0.310000 14 91 222
-1203716447 153980.890141 495743.159910 0.740000 14 91 222
-1203716447 153980.910156 495742.929935 0.490000 14 91 222
-1203716447 153980.930171 495742.760009 0.190000 14 91 222
-1203716447 153980.959960 495742.610104 -0.170000 14 91 222
-1203716447 153980.959960 495735.530029 0.500000 14 91 222
-1203716447 153980.949708 495734.340088 0.720000 14 91 222
-1203716447 153981.179690 495743.459960 0.110000 14 91 222
-1203716447 153981.149901 495743.050048 0.540000 14 91 222
-1203716447 153981.200193 495742.929935 -0.100000 14 91 222
-1203716447 153981.189942 495742.629885 0.040000 14 91 222
-1203716447 153981.179690 495742.290040 0.180000 14 91 222
-1203716447 153981.189942 495735.840090 0.650000 14 91 222
-1203716447 153981.209957 495735.649902 0.370000 14 91 222
-1203716447 153981.479979 495743.790043 -0.160000 14 91 222
-1203716447 153981.469728 495743.489992 -0.080000 14 91 222
-1203716447 153981.430175 495742.969970 0.620000 14 91 222
-1203716447 153981.479979 495742.879881 -0.160000 14 91 222
-1203716447 153981.469728 495736.310059 0.750000 14 91 222
-1203716447 153981.500005 495735.870115 0.260000 14 91 222
-1203716447 153981.520020 495735.669923 -0.060000 14 91 222
-1203716447 153981.530271 495733.939938 -0.050000 14 91 222
-1203716447 153981.540035 495732.209960 -0.030000 14 91 222
-1203716447 153981.830083 495743.500003 0.170000 14 91 222
-1203716447 153981.850098 495743.280031 -0.010000 14 91 222
-1203716447 153981.810057 495742.249997 0.590000 14 91 222
-1203716447 153981.850098 495738.550048 0.460000 14 91 222
-1203716447 153981.859861 495733.820065 0.770000 14 91 222
-1203716447 153981.859861 495733.540036 0.690000 14 91 222
-1203716447 153981.879887 495732.439943 0.530000 14 91 222
-1203716447 153981.890139 495732.199949 0.430000 14 91 222
-1203716447 153981.919917 495732.100098 -0.120000 14 91 222
-1203716447 153982.069828 495742.370118 0.410000 14 91 222
-1203716447 153982.129884 495736.379885 0.100000 14 91 222
-1203716447 153982.109858 495733.649906 0.670000 14 91 222
-1203716447 153982.129884 495733.399902 0.440000 14 91 222
-1203716447 153982.140135 495732.600099 0.400000 14 91 222
-1203716447 153982.159673 495732.399900 0.100000 14 91 222
-1203716447 153982.209965 495742.439945 0.630000 14 91 222
-1203716447 153982.209965 495742.129884 0.700000 14 91 222
-1203716447 153982.219729 495740.989988 0.710000 14 91 222
-1203716447 153982.270021 495740.929931 -0.060000 14 91 222
-1203716447 153982.299799 495736.330080 -0.160000 14 91 222
-1203716447 153982.259769 495733.840087 0.710000 14 91 222
-1203716447 153982.270021 495733.560058 0.570000 14 91 222
-1203716447 153982.270021 495733.300051 0.570000 14 91 222
-1203716447 153982.290036 495732.520021 0.340000 14 91 222
-1203716447 153982.319825 495732.350095 -0.010000 14 91 222
-1203716447 153982.399906 495742.249997 0.770000 14 91 222
-1203716447 153982.430173 495739.030028 0.720000 14 91 222
-1203716447 153982.489751 495736.469974 0.010000 14 91 222
-1203716447 153982.489751 495735.560061 0.120000 14 91 222
-1203716447 153982.509766 495735.389894 -0.160000 14 91 222
-1203716447 153982.479977 495734.360109 0.430000 14 91 222
-1203716447 153982.459962 495733.679930 0.740000 14 91 222
-1203716447 153982.500003 495732.689939 0.270000 14 91 222
-1203716447 153982.520018 495732.459964 -0.040000 14 91 222
-1203716447 153982.760251 495742.120114 0.790000 14 91 222
-1203716447 153982.770014 495740.969974 0.620000 14 91 222
-1203716447 153982.779789 495739.260010 0.670000 14 91 222
-1203716447 153982.800292 495739.100095 0.320000 14 91 222
-1203716447 153982.819829 495735.419919 0.390000 14 91 222
-1203716447 153982.859859 495735.300046 -0.180000 14 91 222
-1203716447 153982.830081 495734.510006 0.420000 14 91 222
-1203716447 153982.810055 495734.149899 0.710000 14 91 222
-1203716447 153982.810055 495733.860108 0.780000 14 91 222
-1203716447 153982.830081 495731.590087 0.720000 14 91 222
-1203716447 153982.830081 495731.320069 0.610000 14 91 222
-1203716447 153982.999996 495742.500001 0.750000 14 91 222
-1203716447 153983.020022 495741.429932 0.540000 14 91 222
-1203716447 153983.069826 495740.530030 -0.160000 14 91 222
-1203716447 153983.040037 495735.399905 0.790000 14 91 222
-1203716447 153983.050289 495735.139890 0.680000 14 91 222
-1203716447 153983.090329 495735.000004 0.150000 14 91 222
-1203716447 153983.090329 495731.479984 0.430000 14 91 222
-1203716447 153983.100093 495731.229980 0.310000 14 91 222
-1203716447 153983.229978 495741.250003 0.700000 14 91 222
-1203716447 153983.270019 495740.800048 0.240000 14 91 222
-1203716447 153983.259767 495739.300046 0.450000 14 91 222
-1203716447 153983.250004 495738.649899 0.750000 14 91 222
-1203716447 153983.299808 495736.830081 0.110000 14 91 222
-1203716447 153983.310060 495736.560055 0.040000 14 91 222
-1203716447 153983.320311 495736.260013 -0.040000 14 91 222
-1203716447 153983.270019 495735.780026 0.660000 14 91 222
-1203716447 153983.299808 495731.820069 0.520000 14 91 222
-1203716447 153983.330075 495731.590087 0.240000 14 91 222
-1203716447 153983.299808 495731.199948 0.620000 14 91 222
-1203716447 153983.570308 495741.620121 -0.050000 14 91 222
-1203716447 153983.580082 495740.419920 0.010000 14 91 222
-1203716447 153983.570308 495740.110107 0.160000 14 91 222
-1203716447 153983.570308 495739.510007 0.230000 14 91 222
-1203716447 153983.549805 495738.870120 0.560000 14 91 222
-1203716447 153983.570308 495734.459960 0.770000 14 91 222
-1203716447 153983.580082 495732.159914 0.780000 14 91 222
-1203716447 153983.589846 495731.929931 0.660000 14 91 222
-1203716447 153983.620112 495731.780027 0.190000 14 91 222
-1203716447 153983.959964 495739.499996 0.030000 14 91 222
-1203716447 153983.979979 495731.570065 0.480000 14 91 222
-1203716447 153984.229976 495732.709961 0.650000 14 91 222
-1203716447 153984.239750 495732.439943 0.560000 14 91 222
-1203716447 153984.229976 495731.850094 0.780000 14 91 222
-1203716447 153984.239750 495731.639892 0.590000 14 91 222
-1203716447 153984.359862 495738.760009 0.740000 14 91 222
-1203716447 153984.399902 495738.939939 0.120000 14 91 222
-1203716447 153984.370113 495738.179931 0.670000 14 91 222
-1203716447 153984.410154 495732.800050 0.560000 14 91 222
-1203716447 153984.410154 495732.209960 0.670000 14 91 222
-1203716447 153984.429691 495732.010009 0.350000 14 91 222
-1203716447 153984.429691 495731.699948 0.420000 14 91 222
-1203716447 153984.609858 495737.979980 0.710000 14 91 222
-1203716447 153984.609858 495737.679930 0.730000 14 91 222
-1203716447 153984.669925 495732.139893 0.330000 14 91 222
-1203716447 153984.659673 495731.840091 0.470000 14 91 222
-1203716447 153984.949711 495741.290038 0.500000 14 91 222
-1203716447 153984.970214 495741.120120 0.200000 14 91 222
-1203716447 153984.970214 495737.540036 0.640000 14 91 222
-1203716447 153984.970214 495735.239990 0.790000 14 91 222
-1203716447 153984.979977 495734.100094 0.780000 14 91 222
-1203716447 153984.989751 495733.010011 0.640000 14 91 222
-1203716447 153985.049807 495732.610110 -0.140000 14 91 222
-1203716447 153985.189944 495741.280028 0.340000 14 91 222
-1203716447 153985.220211 495741.100098 0.010000 14 91 222
-1203716447 153985.220211 495740.840091 -0.090000 14 91 222
-1203716447 153985.209959 495737.350096 0.420000 14 91 222
-1203716447 153985.209959 495734.110105 0.680000 14 91 222
-1203716447 153985.239748 495733.080078 0.350000 14 91 222
-1203716447 153985.270015 495732.620121 -0.090000 14 91 222
-1203716447 153985.390137 495741.419922 0.050000 14 91 222
-1203716447 153985.399900 495741.199949 -0.090000 14 91 222
-1203716447 153985.399900 495740.919921 -0.060000 14 91 222
-1203716447 153985.399900 495738.290041 0.170000 14 91 222
-1203716447 153985.390137 495734.389893 0.770000 14 91 222
-1203716447 153985.390137 495734.129885 0.710000 14 91 222
-1203716447 153985.410152 495733.310061 0.610000 14 91 222
-1203716447 153985.429689 495733.120114 0.270000 14 91 222
-1203716447 153985.419926 495732.790039 0.440000 14 91 222
-1203716447 153985.659671 495742.889892 0.040000 14 91 222
-1203716447 153985.680174 495741.790039 -0.120000 14 91 222
-1203716447 153985.680174 495741.239992 -0.080000 14 91 222
-1203716447 153985.689938 495741.010010 -0.200000 14 91 222
-1203716447 153985.669923 495734.439939 0.660000 14 91 222
-1203716447 153985.680174 495733.580079 0.630000 14 91 222
-1203716447 153985.680174 495733.290040 0.590000 14 91 222
-1203716447 153985.680174 495733.020022 0.670000 14 91 222
-1203716447 153985.689938 495732.409911 0.640000 14 91 222
-1203716447 153986.040042 495742.840087 -0.080000 14 91 222
-1203716447 153985.989749 495742.070068 0.740000 14 91 222
-1203716447 153986.000001 495741.790039 0.620000 14 91 222
-1203716447 153986.049805 495741.699950 -0.060000 14 91 222
-1203716447 153986.040042 495741.409911 0.010000 14 91 222
-1203716447 153986.060057 495741.179928 -0.170000 14 91 222
-1203716447 153986.049805 495740.840091 -0.080000 14 91 222
-1203716447 153986.089846 495734.800045 -0.040000 14 91 222
-1203716447 153986.040042 495734.020016 0.700000 14 91 222
-1203716447 153986.060057 495733.469969 0.510000 14 91 222
-1203716447 153986.060057 495733.189940 0.530000 14 91 222
-1203716447 153986.070308 495732.959957 0.420000 14 91 222
-1203716447 153986.080082 495732.699950 0.300000 14 91 222
-1203716447 153986.060057 495732.320070 0.540000 14 91 222
-1203716447 153986.310053 495741.550046 0.420000 14 91 222
-1203716447 153986.310053 495741.270017 0.510000 14 91 222
-1203716447 153986.310053 495740.979977 0.570000 14 91 222
-1203716447 153986.330079 495734.889894 0.750000 14 91 222
-1203716447 153986.359868 495733.239994 0.450000 14 91 222
-1203716447 153986.359868 495732.959957 0.500000 14 91 222
-1203716447 153986.390135 495732.790039 0.110000 14 91 222
-1203716447 153986.390135 495732.479978 0.050000 14 91 222
-1203716447 153986.490231 495742.270019 0.460000 14 91 222
-1203716447 153986.490231 495741.979979 0.530000 14 91 222
-1203716447 153986.490231 495741.669918 0.600000 14 91 222
-1203716447 153986.500005 495741.429932 0.390000 14 91 222
-1203716447 153986.490231 495741.110109 0.530000 14 91 222
-1203716447 153986.549809 495733.989991 0.250000 14 91 222
-1203716447 153986.549809 495733.080078 0.330000 14 91 222
-1203716447 153986.569824 495732.850096 0.140000 14 91 222
-1203716447 153986.560061 495732.510010 0.310000 14 91 222
-1203716447 153986.739751 495744.330079 0.430000 14 91 222
-1203716447 153986.729976 495741.949955 0.700000 14 91 222
-1203716447 153986.739751 495741.729983 0.560000 14 91 222
-1203716447 153986.760254 495741.449954 0.380000 14 91 222
-1203716447 153986.750002 495741.100098 0.600000 14 91 222
-1203716447 153986.750002 495740.850094 0.550000 14 91 222
-1203716447 153986.790043 495735.320068 0.500000 14 91 222
-1203716447 153986.810058 495733.969970 0.290000 14 91 222
-1203716447 153986.830084 495733.770019 0.000000 14 91 222
-1203716447 153986.810058 495732.840085 0.360000 14 91 222
-1203716447 153986.799806 495732.520021 0.460000 14 91 222
-1203716447 153987.090332 495743.969972 0.440000 14 91 222
-1203716447 153987.090332 495743.679932 0.400000 14 91 222
-1203716447 153987.109859 495743.449949 0.210000 14 91 222
-1203716447 153987.080080 495741.219971 0.790000 14 91 222
-1203716447 153987.090332 495740.989988 0.640000 14 91 222
-1203716447 153987.100095 495740.750002 0.530000 14 91 222
-1203716447 153987.140136 495740.649903 -0.130000 14 91 222
-1203716447 153987.120121 495737.249996 0.560000 14 91 222
-1203716447 153987.129884 495734.679932 0.630000 14 91 222
-1203716447 153987.120121 495734.350098 0.790000 14 91 222
-1203716447 153987.140136 495733.879881 0.580000 14 91 222
-1203716447 153987.149899 495733.620115 0.440000 14 91 222
-1203716447 153987.169925 495733.419923 0.080000 14 91 222
-1203716447 153987.310062 495744.620118 0.620000 14 91 222
-1203716447 153987.300288 495743.999996 0.750000 14 91 222
-1203716447 153987.330077 495743.810056 0.340000 14 91 222
-1203716447 153987.340329 495743.550049 0.280000 14 91 222
-1203716447 153987.330077 495740.860105 0.670000 14 91 222
-1203716447 153987.370118 495740.750002 0.070000 14 91 222
-1203716447 153987.379881 495734.350098 0.430000 14 91 222
-1203716447 153987.379881 495733.780030 0.500000 14 91 222
-1203716447 153987.419922 495733.360107 -0.030000 14 91 222
-1203716447 153987.500003 495745.040041 0.590000 14 91 222
-1203716447 153987.490229 495744.719969 0.740000 14 91 222
-1203716447 153987.490229 495744.429930 0.780000 14 91 222
-1203716447 153987.500003 495743.879883 0.650000 14 91 222
-1203716447 153987.520018 495743.649900 0.380000 14 91 222
-1203716447 153987.520018 495743.399904 0.350000 14 91 222
-1203716447 153987.520018 495743.070070 0.450000 14 91 222
-1203716447 153987.549807 495741.080077 0.200000 14 91 222
-1203716447 153987.549807 495740.820070 0.150000 14 91 222
-1203716447 153987.570310 495734.500003 0.420000 14 91 222
-1203716447 153987.560059 495733.550047 0.720000 14 91 222
-1203716447 153987.580074 495733.379880 0.320000 14 91 222
-1203716447 153987.620115 495733.270018 -0.190000 14 91 222
-1203716447 153987.770015 495745.270016 0.550000 14 91 222
-1203716447 153987.779789 495745.010009 0.330000 14 91 222
-1203716447 153987.760252 495743.419925 0.760000 14 91 222
-1203716447 153987.770015 495743.179931 0.630000 14 91 222
-1203716447 153987.800292 495741.020020 0.340000 14 91 222
-1203716447 153987.830081 495735.280033 0.480000 14 91 222
-1203716447 153987.839845 495733.850097 0.430000 14 91 222
-1203716447 153987.839845 495733.550047 0.470000 14 91 222
-1203716447 153987.850096 495733.290040 0.350000 14 91 222
-1203716447 153988.169923 495745.409910 0.140000 14 91 222
-1203716447 153988.149897 495744.689945 0.470000 14 91 222
-1203716447 153988.140134 495744.379884 0.620000 14 91 222
-1203716447 153988.140134 495744.100096 0.700000 14 91 222
-1203716447 153988.149897 495743.840089 0.560000 14 91 222
-1203716447 153988.159671 495743.610106 0.440000 14 91 222
-1203716447 153988.140134 495743.260010 0.740000 14 91 222
-1203716447 153988.189938 495738.179931 0.480000 14 91 222
-1203716447 153988.209964 495737.949948 0.170000 14 91 222
-1203716447 153988.219727 495736.290037 0.190000 14 91 222
-1203716447 153988.199712 495733.580079 0.660000 14 91 222
-1203716447 153988.240230 495733.439945 0.100000 14 91 222
-1203716447 153988.229979 495733.149905 0.150000 14 91 222
-1203716447 153988.419920 495745.250002 0.410000 14 91 222
-1203716447 153988.419920 495744.949952 0.460000 14 91 222
-1203716447 153988.409668 495744.620118 0.660000 14 91 222
-1203716447 153988.479975 495743.189942 -0.190000 14 91 222
-1203716447 153988.459960 495738.060058 0.580000 14 91 222
-1203716447 153988.470212 495734.020016 0.700000 14 91 222
-1203716447 153988.479975 495733.449948 0.570000 14 91 222
-1203716447 153988.510253 495733.260008 0.230000 14 91 222
-1203716447 153988.609861 495745.169924 0.740000 14 91 222
-1203716447 153988.629887 495744.949952 0.430000 14 91 222
-1203716447 153988.609861 495744.600097 0.720000 14 91 222
-1203716447 153988.689942 495740.860105 -0.140000 14 91 222
-1203716447 153988.700194 495735.280033 0.150000 14 91 222
-1203716447 153988.709957 495735.050050 -0.040000 14 91 222
-1203716447 153988.700194 495734.699954 0.170000 14 91 222
-1203716447 153988.669917 495733.959959 0.780000 14 91 222
-1203716447 153988.679691 495733.409912 0.610000 14 91 222
-1203716447 153988.729983 495733.379880 -0.180000 14 91 222
-1203716447 153988.859869 495745.540042 0.730000 14 91 222
-1203716447 153988.879883 495745.310059 0.570000 14 91 222
-1203716447 153988.899898 495745.100098 0.270000 14 91 222
-1203716447 153988.890135 495744.760012 0.340000 14 91 222
-1203716447 153988.890135 495744.139890 0.520000 14 91 222
-1203716447 153988.919924 495743.379882 0.140000 14 91 222
-1203716447 153988.930176 495740.850094 0.090000 14 91 222
-1203716447 153988.950191 495740.629881 -0.130000 14 91 222
-1203716447 153988.950191 495736.479977 0.220000 14 91 222
-1203716447 153988.930176 495734.939939 0.620000 14 91 222
-1203716447 153988.959965 495734.760010 0.230000 14 91 222
-1203716447 153988.959965 495734.449949 0.210000 14 91 222
-1203716447 153988.959965 495734.139896 0.320000 14 91 222
-1203716447 153988.939939 495733.749998 0.700000 14 91 222
-1203716447 153989.280269 495741.679929 0.060000 14 91 222
-1203716447 153989.270017 495741.050052 0.300000 14 91 222
-1203716447 153989.270017 495740.750002 0.320000 14 91 222
-1203716447 153989.299806 495740.560062 -0.120000 14 91 222
-1203716447 153989.290043 495740.189945 0.090000 14 91 222
-1203716447 153989.259766 495738.889893 0.640000 14 91 222
-1203716447 153989.320310 495737.080078 -0.080000 14 91 222
-1203716447 153989.280269 495734.249999 0.740000 14 91 222
-1203716447 153989.310058 495734.110105 0.290000 14 91 222
-1203716447 153989.310058 495733.820065 0.360000 14 91 222
-1203716447 153989.470210 495740.909910 0.420000 14 91 222
-1203716447 153989.479984 495740.669924 0.340000 14 91 222
-1203716447 153989.470210 495737.929934 0.690000 14 91 222
-1203716447 153989.510251 495737.219972 0.090000 14 91 222
-1203716447 153989.470210 495736.439942 0.770000 14 91 222
-1203716447 153989.540040 495733.919924 -0.100000 14 91 222
-1203716447 153989.679689 495741.179928 0.360000 14 91 222
-1203716447 153989.669925 495737.850097 0.770000 14 91 222
-1203716447 153989.709966 495737.199950 0.190000 14 91 222
-1203716447 153989.700192 495734.840088 0.590000 14 91 222
-1203716447 153989.709966 495734.300052 0.480000 14 91 222
-1203716447 153989.729981 495734.110105 0.260000 14 91 222
-1203716447 153989.899907 495742.860108 0.790000 14 91 222
-1203716447 153989.949711 495742.749998 0.170000 14 91 222
-1203716447 153989.949711 495739.530028 0.430000 14 91 222
-1203716447 153989.930174 495739.129886 0.740000 14 91 222
-1203716447 153989.930174 495738.870120 0.680000 14 91 222
-1203716447 153989.979978 495734.409914 0.390000 14 91 222
-1203716447 153989.979978 495734.149899 0.330000 14 91 222
-1203716447 153990.020018 495733.699952 -0.180000 14 91 222
-1203716447 153990.300293 495743.689943 0.640000 14 91 222
-1203716447 153990.300293 495743.409914 0.600000 14 91 222
-1203716447 153990.300293 495743.110105 0.670000 14 91 222
-1203716447 153990.330082 495742.939938 0.170000 14 91 222
-1203716447 153990.300293 495742.239986 0.680000 14 91 222
-1203716447 153990.320307 495738.840088 0.790000 14 91 222
-1203716447 153990.339845 495734.590084 0.730000 14 91 222
-1203716447 153990.359860 495734.669921 0.450000 14 91 222
-1203716447 153990.379886 495734.439939 0.190000 14 91 222
-1203716447 153990.390137 495734.209964 0.010000 14 91 222
-1203716447 153990.399901 495733.649906 -0.100000 14 91 222
-1203716447 153990.580078 495743.719968 0.570000 14 91 222
-1203716447 153990.600093 495743.520017 0.210000 14 91 222
-1203716447 153990.569827 495743.110105 0.770000 14 91 222
-1203716447 153990.609868 495743.000002 0.190000 14 91 222
-1203716447 153990.569827 495742.550047 0.730000 14 91 222
-1203716447 153990.649897 495739.999997 -0.150000 14 91 222
-1203716447 153990.649897 495734.139896 0.290000 14 91 222
-1203716447 153990.680175 495733.949948 -0.110000 14 91 222
-1203716447 153990.759768 495743.709965 0.670000 14 91 222
-1203716447 153990.780271 495743.510006 0.360000 14 91 222
-1203716447 153990.770020 495743.199953 0.560000 14 91 222
-1203716447 153990.799809 495743.030027 0.160000 14 91 222
-1203716447 153990.810060 495742.800052 -0.040000 14 91 222
-1203716447 153990.770020 495741.729983 0.710000 14 91 222
-1203716447 153990.780271 495741.459965 0.630000 14 91 222
-1203716447 153990.840327 495739.969973 -0.190000 14 91 222
-1203716447 153990.840327 495734.090091 0.220000 14 91 222
-1203716447 153990.870116 495733.919924 -0.190000 14 91 222
-1203716447 153991.010253 495743.790043 0.670000 14 91 222
