-1199616505 156103.059567 498004.109865 3.520000 169 201 102
-1199616505 156103.180666 498003.669921 3.330000 169 201 102
-1199616505 156103.220707 498003.520016 3.840000 169 201 102
-1199616505 156103.470703 498004.169922 3.540000 169 201 102
-1199616505 156103.839846 498002.749997 2.990000 169 201 102
-1199616505 156104.129883 498001.919922 3.900000 169 201 102
-1199616505 156103.740238 498002.040043 3.740000 169 201 102
-1199616505 156103.620116 498001.560056 3.010000 169 201 102
-1199616505 156103.320315 498000.410157 3.920000 169 201 102
-1199616505 156103.230470 498000.029788 3.940000 169 201 102
-1199616505 156102.910155 498000.569824 3.550000 169 201 102
-1199616505 156102.839848 498000.310057 3.210000 169 201 102
-1199616505 156103.490230 498004.169922 3.750000 169 201 102
-1199616505 156103.410160 498003.839847 3.640000 169 201 102
-1199616505 156103.360356 498003.680172 3.200000 169 201 102
-1199616505 156102.919919 498001.959965 3.730000 169 201 102
-1199616505 156102.759767 498001.299808 3.410000 169 201 102
-1199616505 156102.580077 498000.600097 3.290000 169 201 102
-1199616505 156102.900392 498003.549808 3.820000 169 201 102
-1199616505 156102.830074 498003.290041 3.550000 169 201 102
-1199616505 156102.049806 498000.229979 3.580000 169 201 102
-1199616505 156102.499996 498003.540038 3.850000 169 201 102
-1199616505 156102.280276 498002.669919 3.300000 169 201 102
-1199616505 156102.009765 498001.640134 3.100000 169 201 102
-1199616505 156101.639647 498000.180174 3.950000 169 201 102
-1199616505 156102.080083 498003.879882 3.350000 169 201 102
-1199616505 156101.689451 498002.339844 3.490000 169 201 102
-1199616505 156101.620120 498002.080078 3.300000 169 201 102
-1199616505 156101.530275 498001.720212 3.160000 169 201 102
-1199616505 156101.450194 498001.419921 3.020000 169 201 102
-1199616505 156101.160156 498001.499999 3.000000 169 201 102
-1199616505 156100.860355 498002.069826 3.700000 169 201 102
-1199616505 156100.790037 498001.799808 3.400000 169 201 102
-1199616505 156100.609371 498001.089846 3.340000 169 201 102
-1199616505 156100.200199 498001.049803 3.640000 169 201 102
-1199616505 156100.110354 498000.720218 3.530000 169 201 102
-1199616505 156099.559569 498003.439938 2.990000 169 201 102
-1199616505 156099.209964 498002.069826 3.600000 169 201 102
-1199616505 156098.859372 498002.229983 3.610000 169 201 102
-1199616505 156098.799805 498001.979978 3.320000 169 201 102
-1199616505 156098.700197 498001.589847 3.340000 169 201 102
-1199616505 156098.479490 498002.310061 3.550000 169 201 102
-1199616505 156098.189453 498001.180176 3.540000 169 201 102
-1199616505 156098.180665 498002.520022 3.790000 169 201 102
-1199616505 156097.660158 498000.499997 3.170000 169 201 102
-1199616505 156097.509769 498001.470215 3.470000 169 201 102
-1199616505 156096.940434 498000.759764 3.900000 169 201 102
-1199616505 156096.879879 498000.529789 3.490000 169 201 102
-1199616505 156096.839839 498000.379884 2.980000 169 201 102
-1199616505 156097.120113 498003.040037 3.760000 169 201 102
-1199616505 156096.470707 498000.499997 3.540000 169 201 102
-1199616505 156096.969724 498003.740237 3.690000 169 201 102
-1199616505 156096.879879 498003.399903 3.680000 169 201 102
-1199616505 156096.370123 498001.399899 3.040000 169 201 102
-1199616505 156096.160156 498000.569824 3.150000 169 201 102
-1199616505 156096.339845 498002.819824 3.110000 169 201 102
-1199616505 156103.879887 498003.669921 3.100000 169 201 102
-1199616505 156104.009761 498001.600099 3.050000 169 201 102
-1199616505 156103.959957 498001.839844 3.460000 169 201 102
-1199616505 156103.899413 498002.080078 3.770000 169 201 102
-1199616505 156103.540034 498003.569821 2.970000 169 201 102
-1199616505 156103.500004 498003.740237 3.390000 169 201 102
-1199616505 156103.439450 498004.000003 3.650000 169 201 102
-1199616505 156103.529295 498001.939943 3.430000 169 201 102
-1199616505 156103.200193 498003.330076 3.700000 169 201 102
-1199616505 156102.709963 498003.560059 3.690000 169 201 102
-1199616505 156103.109372 498000.049801 3.590000 169 201 102
-1199616505 156102.459966 498000.970214 3.560000 169 201 102
-1199616505 156102.230472 498000.290036 3.830000 169 201 102
-1199616505 156101.929684 498001.569826 3.390000 169 201 102
-1199616505 156101.810549 498002.040043 3.240000 169 201 102
-1199616505 156101.830076 498000.319827 3.400000 169 201 102
-1199616505 156101.750005 498000.669923 3.470000 169 201 102
-1199616505 156101.440430 498001.970216 3.160000 169 201 102
-1199616505 156101.370112 498002.240234 3.380000 169 201 102
-1199616505 156101.480471 498000.069823 3.640000 169 201 102
-1199616505 156101.150393 498001.450194 3.040000 169 201 102
-1199616505 156101.069335 498001.799808 3.160000 169 201 102
-1199616505 156100.990230 498002.100099 3.350000 169 201 102
-1199616505 156100.939450 498002.330074 3.630000 169 201 102
-1199616505 156100.860355 498002.680178 3.670000 169 201 102
-1199616505 156100.759771 498001.200197 3.250000 169 201 102
-1199616505 156100.419918 498001.069825 3.360000 169 201 102
-1199616505 156100.110354 498000.870115 3.370000 169 201 102
-1199616505 156100.060550 498001.109860 3.700000 169 201 102
-1199616505 156099.589847 498001.200197 3.430000 169 201 102
-1199616505 156099.330076 498002.310061 3.480000 169 201 102
-1199616505 156099.099606 498001.689939 2.980000 169 201 102
-1199616505 156099.009761 498002.069826 3.070000 169 201 102
-1199616505 156098.980471 498002.240234 3.600000 169 201 102
-1199616505 156098.679683 498003.470211 3.330000 169 201 102
-1199616505 156098.500004 498002.259766 3.560000 169 201 102
-1199616505 156098.650393 498000.379884 3.590000 169 201 102
-1199616505 156098.129885 498002.560057 3.660000 169 201 102
-1199616505 156098.059567 498002.859867 3.920000 169 201 102
-1199616505 156097.959959 498001.100098 3.210000 169 201 102
-1199616505 156097.910155 498001.279786 3.650000 169 201 102
-1199616505 156097.479492 498003.069820 3.930000 169 201 102
-1199616505 156097.700199 498000.660153 3.240000 169 201 102
-1199616505 156097.160154 498002.950196 3.250000 169 201 102
-1199616505 156097.109373 498003.129885 3.760000 169 201 102
-1199616505 156097.230472 498000.910158 3.130000 169 201 102
-1199616505 156096.819336 498002.620114 3.450000 169 201 102
-1199616505 156096.649409 498003.310055 3.670000 169 201 102
-1199616505 156097.049806 498000.330079 3.290000 169 201 102
-1199616505 156096.979488 498000.640140 3.480000 169 201 102
-1199616505 156096.919920 498000.899898 3.780000 169 201 102
-1199616505 156096.470707 498002.749997 3.040000 169 201 102
-1199616505 156096.459957 498000.520019 3.490000 169 201 102
-1199616505 156096.230474 498001.470215 3.000000 169 201 102
-1199616505 156096.160156 498000.629880 3.040000 169 201 102
-1199616505 156099.400394 498004.330078 3.100000 169 201 102
-1199616505 156099.589847 498004.529788 3.340000 169 201 102
-1199616505 156096.110352 497999.850099 2.860000 169 201 102
-1199616505 156096.850589 497999.509765 2.280000 169 201 102
-1199616505 156097.140627 497999.000002 2.850000 169 201 102
-1199616505 156097.249998 497999.430177 2.070000 169 201 102
-1199616505 156097.430664 497998.729984 2.800000 169 201 102
-1199616505 156097.479492 497998.919924 2.440000 169 201 102
-1199616505 156097.529296 497999.149899 2.150000 169 201 102
-1199616505 156097.930669 497999.069821 2.720000 169 201 102
-1199616505 156097.980473 497999.249999 2.280000 169 201 102
-1199616505 156099.330076 497998.799803 1.980000 169 201 102
-1199616505 156099.770513 497999.290042 2.660000 169 201 102
-1199616505 156099.849607 497999.649900 2.660000 169 201 102
-1199616505 156100.570318 497999.560060 2.150000 169 201 102
-1199616505 156100.559567 497997.959958 2.350000 169 201 102
-1199616505 156100.879882 497999.310056 2.860000 169 201 102
-1199616505 156100.919923 497999.459960 2.380000 169 201 102
-1199616505 156100.879882 497997.939944 2.640000 169 201 102
-1199616505 156101.089849 497998.799803 1.980000 169 201 102
-1199616505 156101.480471 497998.990232 2.960000 169 201 102
-1199616505 156101.520512 497999.149899 2.470000 169 201 102
-1199616505 156101.559565 497999.339847 2.050000 169 201 102
-1199616505 156102.339844 497999.450198 2.500000 169 201 102
-1199616505 156102.370121 497998.060057 2.440000 169 201 102
-1199616505 156102.459966 497998.430175 2.370000 169 201 102
-1199616505 156102.959959 497998.910154 2.390000 169 201 102
-1199616505 156103.089845 497999.459960 2.830000 169 201 102
-1199616505 156103.470703 497999.479982 2.380000 169 201 102
-1199616505 156103.980471 497999.890135 1.970000 169 201 102
-1199616505 156103.790042 497997.779788 2.930000 169 201 102
-1199616505 156104.259769 497999.740238 2.050000 169 201 102
-1199616505 156096.589842 497999.660159 2.770000 169 201 102
-1199616505 156097.200194 497999.029786 2.790000 169 201 102
-1199616505 156097.560550 497999.029786 2.430000 169 201 102
-1199616505 156097.879877 497999.189942 2.220000 169 201 102
-1199616505 156097.900391 497999.100094 2.900000 169 201 102
-1199616505 156098.160152 497999.310056 2.410000 169 201 102
-1199616505 156098.650393 497999.189942 2.610000 169 201 102
-1199616505 156098.830082 497998.500001 2.870000 169 201 102
-1199616505 156099.250005 497998.359867 2.820000 169 201 102
-1199616505 156099.700195 497999.399904 2.640000 169 201 102
-1199616505 156099.939452 497998.490231 2.360000 169 201 102
-1199616505 156099.999995 497998.249997 2.700000 169 201 102
-1199616505 156100.179685 497997.560056 1.980000 169 201 102
-1199616505 156100.450196 497999.560060 2.090000 169 201 102
-1199616505 156100.790037 497998.240235 2.420000 169 201 102
-1199616505 156100.820315 497999.479982 2.170000 169 201 102
-1199616505 156100.839841 497999.390134 2.780000 169 201 102
-1199616505 156101.179683 497999.479982 2.500000 169 201 102
-1199616505 156101.639647 497999.189942 2.750000 169 201 102
-1199616505 156101.850590 497999.850099 2.810000 169 201 102
-1199616505 156102.330080 497999.470212 2.640000 169 201 102
-1199616505 156102.419925 497999.120116 2.740000 169 201 102
-1199616505 156102.639645 497998.279789 2.580000 169 201 102
-1199616505 156102.830074 497998.970219 2.190000 169 201 102
-1199616505 156102.879878 497998.770019 2.640000 169 201 102
-1199616505 156103.140625 497999.560060 2.690000 169 201 102
-1199616505 156103.330078 497998.790041 2.710000 169 201 102
-1199616505 156103.080081 497999.450198 2.650000 169 201 102
-1199616505 156102.610354 497999.419925 2.610000 169 201 102
-1199616505 156102.520510 497999.069821 2.580000 169 201 102
-1199616505 156102.259762 497998.060057 2.320000 169 201 102
-1199616505 156102.249999 497999.319826 2.780000 169 201 102
-1199616505 156101.660161 497998.709963 2.900000 169 201 102
-1199616505 156101.629883 497998.589842 2.180000 169 201 102
-1199616505 156101.530275 497998.200192 2.260000 169 201 102
-1199616505 156101.269528 497998.749998 2.000000 169 201 102
-1199616505 156101.160156 497998.310062 2.100000 169 201 102
-1199616505 156100.780274 497998.779782 2.070000 169 201 102
-1199616505 156100.570318 497997.990231 2.150000 169 201 102
-1199616505 156100.500000 497997.709961 1.980000 169 201 102
-1199616505 156100.359375 497998.379880 2.300000 169 201 102
-1199616505 156099.999995 497998.729984 2.640000 169 201 102
-1199616505 156099.930665 497998.450196 2.430000 169 201 102
-1199616505 156099.820317 497999.589844 2.600000 169 201 102
-1199616505 156099.629887 497998.850098 2.640000 169 201 102
-1199616505 156099.089842 497998.589842 2.510000 169 201 102
-1199616505 156098.830082 497998.930176 2.630000 169 201 102
-1199616505 156098.719723 497998.479980 2.830000 169 201 102
-1199616505 156098.690433 497998.379880 2.150000 169 201 102
-1199616505 156098.109371 497999.299804 2.480000 169 201 102
-1199616505 156097.750003 497999.450198 2.220000 169 201 102
-1199616505 156097.669921 497999.129886 2.110000 169 201 102
-1199616505 156097.309566 497999.129886 2.880000 169 201 102
-1199616505 156097.009765 497999.490233 2.010000 169 201 102
-1199616505 156096.660160 497999.680173 2.860000 169 201 102
-1199616505 156096.649409 497999.640138 2.040000 169 201 102
-1199616505 156103.459964 497998.600101 2.690000 169 201 102
-1199616505 156103.280274 497997.549805 2.750000 169 201 102
-1199616505 156103.169926 497998.020022 2.430000 169 201 102
-1199616505 156102.529297 497999.029786 2.210000 169 201 102
-1199616505 156101.879880 497998.390140 2.150000 169 201 102
-1199616505 156101.459957 497998.249997 2.210000 169 201 102
-1199616505 156101.349609 497998.720214 2.090000 169 201 102
-1199616505 156101.179683 497999.450198 2.090000 169 201 102
-1199616505 156100.830078 497999.339847 2.950000 169 201 102
-1199616505 156100.740233 497999.729978 2.960000 169 201 102
-1199616505 156100.740233 497998.229983 2.470000 169 201 102
-1199616505 156100.609371 497998.810062 2.030000 169 201 102
-1199616505 156100.430669 497999.529787 2.030000 169 201 102
-1199616505 156100.379878 497997.910152 2.180000 169 201 102
-1199616505 156100.259766 497998.419923 2.810000 169 201 102
-1199616505 156099.889647 497998.410153 2.690000 169 201 102
-1199616505 156099.790039 497998.830076 2.660000 169 201 102
-1199616505 156099.049802 497998.729984 2.150000 169 201 102
-1199616505 156098.620115 497998.339845 2.700000 169 201 102
-1199616505 156097.990236 497999.470212 2.390000 169 201 102
-1199616505 156097.580077 497999.439939 2.000000 169 201 102
-1199616505 156097.209958 497999.669922 2.250000 169 201 102
-1199616505 156096.669923 497999.609865 1.980000 169 201 102
-1199616505 156096.349609 497999.830078 2.230000 169 201 102
-1199616505 156101.440430 497999.990234 2.840000 169 201 102
-1199616505 156095.900396 498000.680175 2.640000 169 201 102
-1199616505 156096.280278 498002.290039 2.850000 169 201 102
-1199616505 156096.379886 498002.720214 2.920000 169 201 102
-1199616505 156096.200196 498000.189944 2.780000 169 201 102
-1199616505 156096.269527 498000.509767 2.730000 169 201 102
-1199616505 156096.390626 498001.020020 2.930000 169 201 102
-1199616505 156096.480470 498001.359864 2.860000 169 201 102
-1199616505 156096.570315 498001.750003 2.050000 169 201 102
-1199616505 156096.720704 498002.350096 2.550000 169 201 102
-1199616505 156097.320316 498002.979980 2.730000 169 201 102
-1199616505 156097.379884 498003.220214 2.370000 169 201 102
-1199616505 156097.029292 498000.279784 2.310000 169 201 102
-1199616505 156097.410161 498001.850095 2.290000 169 201 102
-1199616505 156097.709962 498003.100101 2.640000 169 201 102
-1199616505 156098.040040 498002.720214 2.570000 169 201 102
-1199616505 156097.990236 498001.040041 2.860000 169 201 102
-1199616505 156098.080081 498001.439942 2.880000 169 201 102
-1199616505 156098.000000 498001.069825 2.030000 169 201 102
-1199616505 156098.200192 498001.919922 2.250000 169 201 102
-1199616505 156098.419923 498002.859867 2.630000 169 201 102
-1199616505 156098.759764 498004.250000 2.430000 169 201 102
-1199616505 156098.310551 498000.640140 2.790000 169 201 102
-1199616505 156098.360355 498000.859863 2.450000 169 201 102
-1199616505 156098.450200 498001.209959 2.280000 169 201 102
-1199616505 156099.139646 498004.100095 2.090000 169 201 102
-1199616505 156098.490230 498000.140139 2.750000 169 201 102
-1199616505 156098.580074 498000.479983 2.750000 169 201 102
-1199616505 156098.870112 498001.689939 2.060000 169 201 102
-1199616505 156099.049802 498002.459958 2.030000 169 201 102
-1199616505 156099.310549 498003.549808 2.740000 169 201 102
-1199616505 156099.350590 498003.709964 2.230000 169 201 102
-1199616505 156098.959957 498000.499997 2.400000 169 201 102
-1199616505 156099.270508 498001.779787 2.670000 169 201 102
-1199616505 156099.290035 498001.890138 2.060000 169 201 102
-1199616505 156099.600586 498003.189941 2.400000 169 201 102
-1199616505 156099.749999 498003.799804 2.860000 169 201 102
-1199616505 156099.859370 498004.290043 2.210000 169 201 102
-1199616505 156099.319336 498000.540040 2.170000 169 201 102
-1199616505 156099.700195 498002.120121 2.160000 169 201 102
-1199616505 156099.820317 498002.620114 2.410000 169 201 102
-1199616505 156099.870121 498002.799802 2.040000 169 201 102
-1199616505 156100.120118 498003.850099 2.610000 169 201 102
-1199616505 156100.179685 498004.109865 2.380000 169 201 102
-1199616505 156100.279293 498004.529788 2.480000 169 201 102
-1199616505 156100.049799 498001.810060 2.740000 169 201 102
-1199616505 156100.139644 498002.209961 2.750000 169 201 102
-1199616505 156100.299807 498002.850097 2.450000 169 201 102
-1199616505 156100.790037 498004.910157 2.690000 169 201 102
-1199616505 156100.390628 498001.879887 2.470000 169 201 102
-1199616505 156100.810551 498003.649899 2.070000 169 201 102
-1199616505 156100.919923 498004.100095 2.290000 169 201 102
-1199616505 156101.029294 498004.569823 2.550000 169 201 102
-1199616505 156101.169920 498003.529786 1.970000 169 201 102
-1199616505 156101.280278 498003.979982 2.150000 169 201 102
-1199616505 156101.120115 498001.879887 2.350000 169 201 102
-1199616505 156101.209960 498002.249996 2.300000 169 201 102
-1199616505 156101.370112 498002.899902 2.870000 169 201 102
-1199616505 156101.669924 498004.180173 2.350000 169 201 102
-1199616505 156101.759769 498004.549802 2.330000 169 201 102
-1199616505 156101.129879 498000.350100 2.590000 169 201 102
-1199616505 156101.450194 498001.689939 2.200000 169 201 102
-1199616505 156101.570316 498002.189940 2.450000 169 201 102
-1199616505 156101.639647 498002.470217 2.190000 169 201 102
-1199616505 156101.759769 498002.979980 2.570000 169 201 102
-1199616505 156101.889643 498003.500002 2.850000 169 201 102
-1199616505 156101.399413 498000.089844 2.300000 169 201 102
-1199616505 156102.059570 498002.850097 2.400000 169 201 102
-1199616505 156101.839839 498000.520019 2.880000 169 201 102
-1199616505 156102.109374 498001.640134 2.790000 169 201 102
-1199616505 156102.529297 498001.729982 2.850000 169 201 102
-1199616505 156102.870115 498001.640134 2.190000 169 201 102
-1199616505 156103.030277 498002.310061 2.800000 169 201 102
-1199616505 156103.059567 498002.419923 2.160000 169 201 102
-1199616505 156103.059567 498000.950193 2.910000 169 201 102
-1199616505 156103.120122 498001.200197 2.600000 169 201 102
-1199616505 156103.429686 498002.479979 2.050000 169 201 102
-1199616505 156103.830083 498002.569827 2.890000 169 201 102
-1199616505 156103.919917 498002.910153 2.820000 169 201 102
-1199616505 156104.080079 498003.589843 2.670000 169 201 102
-1199616505 156103.660156 498000.270022 2.380000 169 201 102
-1199616505 156104.240231 498002.709962 2.660000 169 201 102
-1199616505 156104.270509 498002.799802 2.000000 169 201 102
-1199616505 156104.370117 498003.249998 2.110000 169 201 102
-1199616505 156104.169924 498000.680175 2.060000 169 201 102
-1199616505 156104.529292 498000.870115 2.030000 169 201 102
-1199616505 156095.820314 498001.259765 2.700000 169 201 102
-1199616505 156096.019530 498000.490235 2.600000 169 201 102
-1199616505 156096.110352 498000.140139 2.680000 169 201 102
-1199616505 156096.080074 498001.600099 2.850000 169 201 102
-1199616505 156096.200196 498001.149903 2.710000 169 201 102
-1199616505 156096.379886 498000.470213 2.000000 169 201 102
-1199616505 156096.450193 498000.189944 2.240000 169 201 102
-1199616505 156096.290041 498002.540036 2.960000 169 201 102
-1199616505 156096.480470 498001.819822 2.090000 169 201 102
-1199616505 156096.700190 498000.959963 2.810000 169 201 102
-1199616505 156096.689450 498002.370117 2.220000 169 201 102
-1199616505 156097.549810 498000.439941 2.420000 169 201 102
-1199616505 156097.309566 498002.600100 2.020000 169 201 102
-1199616505 156097.580077 498003.319825 2.600000 169 201 102
-1199616505 156097.779293 498002.560057 2.590000 169 201 102
-1199616505 156097.950195 498001.910159 2.040000 169 201 102
-1199616505 156098.040040 498001.569826 2.030000 169 201 102
-1199616505 156098.070318 498001.439942 2.640000 169 201 102
-1199616505 156098.169926 498001.040041 2.610000 169 201 102
-1199616505 156098.349604 498000.339841 2.680000 169 201 102
-1199616505 156098.740237 498000.319827 1.990000 169 201 102
-1199616505 156098.759764 498000.209958 2.640000 169 201 102
-1199616505 156098.569335 498002.430174 2.000000 169 201 102
-1199616505 156099.049802 498000.589845 2.180000 169 201 102
-1199616505 156099.120120 498001.669925 2.620000 169 201 102
-1199616505 156098.870112 498004.270021 1.970000 169 201 102
-1199616505 156098.940430 498003.990233 2.170000 169 201 102
-1199616505 156099.379880 498003.689942 2.700000 169 201 102
-1199616505 156099.709958 498002.399901 2.370000 169 201 102
-1199616505 156099.799803 498002.060056 2.500000 169 201 102
-1199616505 156099.549806 498004.379883 2.920000 169 201 102
-1199616505 156099.999995 498002.620114 2.450000 169 201 102
-1199616505 156100.060550 498002.379880 2.770000 169 201 102
-1199616505 156100.169922 498001.950195 2.670000 169 201 102
-1199616505 156100.279293 498001.560056 2.600000 169 201 102
-1199616505 156099.849607 498004.589844 2.040000 169 201 102
-1199616505 156099.930665 498004.279784 2.210000 169 201 102
-1199616505 156100.330074 498002.759767 2.140000 169 201 102
-1199616505 156100.440432 498002.310061 2.890000 169 201 102
-1199616505 156100.599608 498001.720212 2.390000 169 201 102
-1199616505 156100.279293 498004.459961 2.620000 169 201 102
-1199616505 156100.480473 498003.669921 2.520000 169 201 102
-1199616505 156101.319332 498000.459962 2.100000 169 201 102
-1199616505 156101.410153 498000.100096 2.150000 169 201 102
-1199616505 156100.480473 498005.140140 2.630000 169 201 102
-1199616505 156100.570318 498004.790036 2.720000 169 201 102
-1199616505 156100.820315 498003.819826 2.180000 169 201 102
-1199616505 156101.209960 498002.319823 2.250000 169 201 102
-1199616505 156101.370112 498001.709960 2.610000 169 201 102
-1199616505 156100.860355 498005.100097 2.360000 169 201 102
-1199616505 156100.939450 498004.810057 2.550000 169 201 102
-1199616505 156101.019531 498004.499996 2.680000 169 201 102
-1199616505 156101.419927 498002.959959 2.710000 169 201 102
-1199616505 156101.679687 498001.959965 2.230000 169 201 102
-1199616505 156101.450194 498004.270021 2.100000 169 201 102
-1199616505 156101.540038 498003.939939 2.180000 169 201 102
-1199616505 156101.649410 498003.500002 2.920000 169 201 102
-1199616505 156101.810549 498002.890140 2.370000 169 201 102
-1199616505 156102.480469 498000.310057 2.660000 169 201 102
-1199616505 156102.810547 498002.249996 2.250000 169 201 102
-1199616505 156103.169926 498002.450196 2.190000 169 201 102
-1199616505 156103.769528 498000.140139 2.120000 169 201 102
-1199616505 156103.990235 498000.540040 2.320000 169 201 102
-1199616505 156103.819332 498002.850097 2.250000 169 201 102
-1199616505 156104.330076 498000.879885 2.150000 169 201 102
-1199616505 156103.970708 498003.529786 2.550000 169 201 102
-1199616505 156104.700195 498000.899898 2.010000 169 201 102
-1199616505 156104.330076 498000.830080 2.060000 169 201 102
-1199616505 156104.229492 498000.430178 2.190000 169 201 102
-1199616505 156104.120120 498000.040039 2.200000 169 201 102
-1199616505 156103.839846 498000.810058 2.050000 169 201 102
-1199616505 156103.719724 498000.319827 2.330000 169 201 102
-1199616505 156103.970708 498002.950196 2.520000 169 201 102
-1199616505 156103.930667 498002.790040 1.970000 169 201 102
-1199616505 156103.650393 498003.479981 2.940000 169 201 102
-1199616505 156103.429686 498002.629884 2.190000 169 201 102
-1199616505 156102.490232 498000.250001 2.400000 169 201 102
-1199616505 156102.689449 498002.729984 2.160000 169 201 102
-1199616505 156102.419925 498001.709960 2.730000 169 201 102
-1199616505 156102.129888 498002.120121 2.910000 169 201 102
-1199616505 156102.209958 498002.439944 2.160000 169 201 102
-1199616505 156101.649410 498000.209958 2.950000 169 201 102
-1199616505 156101.599606 498000.049801 2.530000 169 201 102
-1199616505 156101.160156 498000.299806 2.160000 169 201 102
-1199616505 156101.660161 498003.450197 2.950000 169 201 102
-1199616505 156101.559565 498003.060058 2.880000 169 201 102
-1199616505 156101.480471 498002.740235 2.710000 169 201 102
-1199616505 156101.169920 498001.560056 1.990000 169 201 102
-1199616505 156100.910159 498000.540040 2.530000 169 201 102
-1199616505 156100.849605 498000.310057 2.200000 169 201 102
-1199616505 156101.679687 498005.310058 2.300000 169 201 102
-1199616505 156101.610356 498005.020019 2.110000 169 201 102
-1199616505 156100.549804 498000.890136 2.010000 169 201 102
-1199616505 156101.229487 498005.069824 2.230000 169 201 102
-1199616505 156101.129879 498004.689944 2.150000 169 201 102
-1199616505 156101.040034 498004.359862 2.030000 169 201 102
-1199616505 156100.580081 498002.549806 2.800000 169 201 102
-1199616505 156100.770510 498005.169923 2.910000 169 201 102
-1199616505 156100.700192 498004.870114 2.820000 169 201 102
-1199616505 156100.620122 498004.569823 2.570000 169 201 102
-1199616505 156100.549804 498004.319826 2.210000 169 201 102
-1199616505 156100.009770 498002.209961 2.770000 169 201 102
-1199616505 156099.930665 498001.890138 2.520000 169 201 102
-1199616505 156100.450196 498005.250002 2.760000 169 201 102
-1199616505 156100.269530 498004.520018 2.630000 169 201 102
-1199616505 156100.160158 498004.109865 2.720000 169 201 102
-1199616505 156100.110354 498003.910155 2.360000 169 201 102
-1199616505 156099.830080 498002.839845 2.220000 169 201 102
-1199616505 156099.660154 498002.160156 2.060000 169 201 102
-1199616505 156099.290035 498000.720218 2.830000 169 201 102
-1199616505 156099.270508 498000.640140 2.150000 169 201 102
-1199616505 156099.889647 498004.729979 2.500000 169 201 102
-1199616505 156099.799803 498004.370121 2.480000 169 201 102
-1199616505 156099.759762 498004.220216 2.020000 169 201 102
-1199616505 156099.519529 498003.290041 2.420000 169 201 102
-1199616505 156099.450198 498003.009764 2.210000 169 201 102
-1199616505 156099.149410 498001.819822 2.350000 169 201 102
-1199616505 156099.040038 498001.379886 2.580000 169 201 102
-1199616505 156098.839845 498000.609867 2.510000 169 201 102
-1199616505 156099.259768 498003.799804 2.610000 169 201 102
-1199616505 156098.549808 498000.999998 2.930000 169 201 102
-1199616505 156098.540034 498000.990236 2.010000 169 201 102
-1199616505 156098.379882 498000.339841 2.690000 169 201 102
-1199616505 156098.999997 498004.330078 2.340000 169 201 102
-1199616505 156098.950193 498004.140138 1.990000 169 201 102
-1199616505 156098.730474 498003.310055 2.040000 169 201 102
-1199616505 156098.650393 498002.959959 2.000000 169 201 102
-1199616505 156098.410159 498002.029783 2.320000 169 201 102
-1199616505 156098.160152 498001.060062 2.930000 169 201 102
-1199616505 156097.980473 498000.350100 2.830000 169 201 102
-1199616505 156098.620115 498004.259762 2.320000 169 201 102
-1199616505 156098.379882 498003.299803 2.810000 169 201 102
-1199616505 156098.299800 498002.990232 2.690000 169 201 102
-1199616505 156098.259771 498002.839845 2.240000 169 201 102
-1199616505 156097.790043 498001.009768 2.920000 169 201 102
-1199616505 156097.769530 498000.959963 2.080000 169 201 102
-1199616505 156097.669921 498000.560062 2.150000 169 201 102
-1199616505 156097.799807 498002.589841 2.640000 169 201 102
-1199616505 156097.200194 498000.240231 2.860000 169 201 102
-1199616505 156097.399411 498002.560057 2.230000 169 201 102
-1199616505 156097.200194 498001.799808 2.290000 169 201 102
-1199616505 156096.779295 498000.149901 2.700000 169 201 102
-1199616505 156096.950198 498002.399901 2.660000 169 201 102
-1199616505 156096.919920 498002.299802 1.990000 169 201 102
-1199616505 156096.639646 498001.200197 2.890000 169 201 102
-1199616505 156096.580079 498000.959963 2.460000 169 201 102
-1199616505 156096.440430 498000.399905 2.880000 169 201 102
-1199616505 156096.359372 498000.089844 2.800000 169 201 102
-1199616505 156096.770508 498002.979980 2.850000 169 201 102
-1199616505 156096.759768 498002.950196 2.050000 169 201 102
-1199616505 156096.639646 498002.470217 2.280000 169 201 102
-1199616505 156096.570315 498002.189940 2.020000 169 201 102
-1199616505 156096.299805 498001.140141 2.790000 169 201 102
-1199616505 156096.140629 498000.509767 2.360000 169 201 102
-1199616505 156096.019530 498000.049801 2.630000 169 201 102
-1199616505 156096.269527 498002.560057 2.860000 169 201 102
-1199616505 156095.969726 498001.370116 2.930000 169 201 102
-1199616505 156095.889645 498001.089846 2.750000 169 201 102
-1199616505 156095.790037 498000.680175 2.790000 169 201 102
-1199616505 156095.979490 498002.839845 2.880000 169 201 102
-1199616505 156095.889645 498002.479979 2.010000 169 201 102
-1199616505 156104.049802 498002.950196 2.010000 169 201 102
-1199616505 156104.040039 498002.990232 2.780000 169 201 102
-1199616505 156103.959957 498003.339846 2.900000 169 201 102
-1199616505 156104.270509 498000.540040 1.970000 169 201 102
-1199616505 156104.189451 498000.890136 2.030000 169 201 102
-1199616505 156103.990235 498001.680177 1.980000 169 201 102
-1199616505 156103.740238 498002.759767 2.170000 169 201 102
-1199616505 156103.930667 498000.279784 2.060000 169 201 102
-1199616505 156103.859373 498000.560062 2.230000 169 201 102
-1199616505 156103.799805 498000.819820 2.510000 169 201 102
-1199616505 156103.660156 498001.410159 2.940000 169 201 102
-1199616505 156103.439450 498000.499997 2.040000 169 201 102
-1199616505 156103.009763 498002.310061 2.160000 169 201 102
-1199616505 156102.859375 498001.120119 2.910000 169 201 102
-1199616505 156102.549800 498002.399901 2.610000 169 201 102
-1199616505 156102.499996 498002.629884 2.890000 169 201 102
-1199616505 156102.620118 498000.299806 2.430000 169 201 102
-1199616505 156102.299803 498001.669925 2.810000 169 201 102
-1199616505 156102.059570 498002.680178 2.360000 169 201 102
-1199616505 156101.990239 498002.970218 2.460000 169 201 102
-1199616505 156101.490234 498005.049802 2.100000 169 201 102
-1199616505 156101.419927 498005.319820 2.310000 169 201 102
-1199616505 156102.240235 498000.240231 2.100000 169 201 102
-1199616505 156101.580079 498003.009764 2.690000 169 201 102
-1199616505 156101.229487 498004.479983 1.990000 169 201 102
-1199616505 156101.160156 498004.779784 2.220000 169 201 102
-1199616505 156101.089849 498005.080075 2.420000 169 201 102
-1199616505 156101.040034 498005.259764 2.790000 169 201 102
-1199616505 156101.870117 498000.140139 2.890000 169 201 102
-1199616505 156101.509761 498001.660155 2.920000 169 201 102
-1199616505 156100.879882 498004.299805 2.060000 169 201 102
-1199616505 156100.820315 498004.540039 2.370000 169 201 102
-1199616505 156100.759771 498004.779784 2.720000 169 201 102
-1199616505 156100.680666 498005.109867 2.750000 169 201 102
-1199616505 156101.459957 498000.160153 2.550000 169 201 102
-1199616505 156101.319332 498000.740232 2.060000 169 201 102
-1199616505 156101.229487 498001.089846 2.130000 169 201 102
-1199616505 156101.129879 498001.540042 2.010000 169 201 102
-1199616505 156100.500000 498004.160160 1.980000 169 201 102
-1199616505 156100.459959 498004.339840 2.370000 169 201 102
-1199616505 156100.400392 498004.580075 2.740000 169 201 102
-1199616505 156100.939450 498000.459962 2.370000 169 201 102
-1199616505 156100.440432 498002.529784 2.770000 169 201 102
-1199616505 156100.040036 498004.189943 2.440000 169 201 102
-1199616505 156099.959966 498004.549802 2.450000 169 201 102
-1199616505 156099.629887 498004.339840 2.810000 169 201 102
-1199616505 156099.839843 498001.990238 2.540000 169 201 102
-1199616505 156099.529292 498003.299803 2.200000 169 201 102
-1199616505 156099.490238 498003.470211 2.740000 169 201 102
-1199616505 156099.370116 498003.979982 2.390000 169 201 102
-1199616505 156099.310549 498004.209965 2.660000 169 201 102
-1199616505 156099.540043 498001.410159 2.130000 169 201 102
-1199616505 156099.400394 498002.000000 2.410000 169 201 102
-1199616505 156098.910153 498004.069822 2.070000 169 201 102
-1199616505 156098.839845 498004.359862 2.240000 169 201 102
-1199616505 156099.330076 498000.750001 2.500000 169 201 102
-1199616505 156098.719723 498003.299803 2.860000 169 201 102
-1199616505 156098.910153 498000.540040 2.260000 169 201 102
-1199616505 156098.419923 498002.560057 2.030000 169 201 102
-1199616505 156098.370118 498002.779789 2.340000 169 201 102
-1199616505 156098.299800 498003.069820 2.520000 169 201 102
-1199616505 156098.500004 498001.029782 2.050000 169 201 102
-1199616505 156098.410159 498001.370116 2.150000 169 201 102
-1199616505 156098.270510 498001.950195 2.450000 169 201 102
-1199616505 156098.209956 498002.200199 2.810000 169 201 102
-1199616505 156098.189453 498000.129880 2.840000 169 201 102
-1199616505 156097.580077 498002.689941 2.200000 169 201 102
-1199616505 156097.509769 498002.970218 2.390000 169 201 102
-1199616505 156097.439451 498003.259768 2.580000 169 201 102
-1199616505 156097.700199 498000.669923 2.250000 169 201 102
-1199616505 156097.249998 498002.549806 2.370000 169 201 102
-1199616505 156097.200194 498002.790040 2.680000 169 201 102
-1199616505 156097.359370 498000.339841 2.570000 169 201 102
-1199616505 156097.299802 498000.620118 2.860000 169 201 102
-1199616505 156096.860353 498002.439944 2.170000 169 201 102
-1199616505 156097.049806 498000.339841 2.370000 169 201 102
-1199616505 156096.560552 498002.370117 2.130000 169 201 102
-1199616505 156096.520511 498002.569827 2.550000 169 201 102
-1199616505 156096.490234 498000.370114 2.890000 169 201 102
-1199616505 156096.319331 498001.120119 2.910000 169 201 102
-1199616505 156095.950200 498002.649905 2.840000 169 201 102
-1199616505 156096.280278 498000.109866 2.450000 169 201 102
-1199616505 156096.179682 498000.509767 2.350000 169 201 102
-1199616505 156096.049808 498001.069825 2.850000 169 201 102
-1199616505 156096.890630 497999.680173 1.790000 169 201 102
-1199616505 156097.339843 497999.790043 1.130000 169 201 102
-1199616505 156097.589840 497999.370120 1.700000 169 201 102
-1199616505 156097.990236 497999.299804 1.440000 169 201 102
-1199616505 156098.030277 497999.470212 0.980000 169 201 102
-1199616505 156099.120120 497999.700195 1.950000 169 201 102
-1199616505 156099.209964 497998.319824 1.820000 169 201 102
-1199616505 156099.370116 497998.970219 1.530000 169 201 102
-1199616505 156099.419920 497999.169921 1.030000 169 201 102
-1199616505 156099.569333 497998.470218 1.610000 169 201 102
-1199616505 156099.859370 497999.689943 1.900000 169 201 102
-1199616505 156099.820317 497997.890139 1.400000 169 201 102
-1199616505 156099.970705 497998.500001 0.990000 169 201 102
-1199616505 156100.070313 497997.490237 1.800000 169 201 102
-1199616505 156100.620122 497999.770021 1.750000 169 201 102
-1199616505 156100.910159 497999.430177 1.410000 169 201 102
-1199616505 156100.979490 497999.689943 1.090000 169 201 102
-1199616505 156100.669926 497997.049804 1.510000 169 201 102
-1199616505 156100.970703 497998.279789 1.740000 169 201 102
-1199616505 156101.250001 497999.459960 1.810000 169 201 102
-1199616505 156101.549802 497999.299804 1.010000 169 201 102
-1199616505 156101.660161 497999.729978 1.080000 169 201 102
-1199616505 156101.820312 497998.779782 1.380000 169 201 102
-1199616505 156101.919921 497997.669918 1.910000 169 201 102
-1199616505 156102.000002 497998.020022 1.870000 169 201 102
-1199616505 156102.080083 497998.330075 1.630000 169 201 102
-1199616505 156102.190431 497998.779782 1.780000 169 201 102
-1199616505 156102.209958 497997.399900 1.790000 169 201 102
-1199616505 156102.470705 497998.500001 1.590000 169 201 102
-1199616505 156102.819334 497998.310062 1.870000 169 201 102
-1199616505 156103.220707 497998.430175 1.670000 169 201 102
-1199616505 156103.230470 497996.790037 1.090000 169 201 102
-1199616505 156103.569335 497998.189940 1.630000 169 201 102
-1199616505 156103.650393 497998.520023 1.480000 169 201 102
-1199616505 156103.799805 497999.169921 1.310000 169 201 102
-1199616505 156103.500004 497996.560062 1.030000 169 201 102
-1199616505 156103.839846 497998.000001 1.680000 169 201 102
-1199616505 156103.910153 497998.299802 1.400000 169 201 102
-1199616505 156097.109373 497999.390134 1.900000 169 201 102
-1199616505 156097.419925 497999.560060 0.970000 169 201 102
-1199616505 156097.520509 497999.180172 1.920000 169 201 102
-1199616505 156098.209956 497999.149899 1.230000 169 201 102
-1199616505 156098.429686 497998.270019 1.760000 169 201 102
-1199616505 156099.139646 497998.790041 1.120000 169 201 102
-1199616505 156099.149410 497998.729984 1.880000 169 201 102
-1199616505 156099.379880 497999.279783 1.020000 169 201 102
-1199616505 156099.440434 497999.069821 1.420000 169 201 102
-1199616505 156099.580083 497998.529785 1.050000 169 201 102
-1199616505 156099.690431 497999.450198 1.900000 169 201 102
-1199616505 156100.070313 497999.640138 1.950000 169 201 102
-1199616505 156100.580081 497997.680177 0.990000 169 201 102
-1199616505 156100.620122 497997.520021 1.460000 169 201 102
-1199616505 156100.709956 497997.169925 1.560000 169 201 102
-1199616505 156100.570318 497999.089843 1.830000 169 201 102
-1199616505 156100.790037 497998.249997 1.630000 169 201 102
-1199616505 156100.740233 497999.790043 1.090000 169 201 102
-1199616505 156100.810551 497999.509765 1.380000 169 201 102
-1199616505 156101.069335 497998.529785 1.730000 169 201 102
-1199616505 156101.150393 497999.589844 1.890000 169 201 102
-1199616505 156101.339846 497998.850098 1.880000 169 201 102
-1199616505 156101.830076 497998.470218 1.110000 169 201 102
-1199616505 156101.900394 497998.200192 1.450000 169 201 102
-1199616505 156102.150391 497998.720214 1.010000 169 201 102
-1199616505 156102.190431 497998.560058 1.580000 169 201 102
-1199616505 156102.490232 497998.850098 1.220000 169 201 102
-1199616505 156102.549800 497998.600101 1.540000 169 201 102
-1199616505 156102.629881 497998.310062 1.790000 169 201 102
-1199616505 156102.890628 497997.310060 1.190000 169 201 102
-1199616505 156102.969723 497998.410153 1.820000 169 201 102
-1199616505 156103.450200 497996.589846 1.110000 169 201 102
-1199616505 156103.470703 497998.290040 1.570000 169 201 102
-1199616505 156103.890626 497998.089841 1.400000 169 201 102
-1199616505 156104.149410 497999.939940 1.870000 169 201 102
-1199616505 156104.429684 497999.819826 1.900000 169 201 102
-1199616505 156103.999998 497998.160157 1.440000 169 201 102
-1199616505 156104.059565 497999.799805 1.790000 169 201 102
-1199616505 156103.600589 497998.000001 1.640000 169 201 102
-1199616505 156103.569335 497999.740238 0.980000 169 201 102
-1199616505 156102.370121 497998.509764 1.250000 169 201 102
-1199616505 156102.140627 497997.580078 1.650000 169 201 102
-1199616505 156102.059570 497997.270017 1.530000 169 201 102
-1199616505 156101.969725 497998.249997 1.800000 169 201 102
-1199616505 156101.900394 497997.979979 1.640000 169 201 102
-1199616505 156101.790035 497997.540043 1.750000 169 201 102
-1199616505 156101.700190 497997.180177 1.670000 169 201 102
-1199616505 156101.570316 497999.930177 1.850000 169 201 102
-1199616505 156101.450194 497999.439939 1.240000 169 201 102
-1199616505 156100.939450 497999.419925 1.480000 169 201 102
-1199616505 156100.400392 497997.319822 1.090000 169 201 102
-1199616505 156100.660152 497999.540038 1.390000 169 201 102
-1199616505 156100.339848 497998.319824 1.580000 169 201 102
-1199616505 156099.919925 497998.399902 1.580000 169 201 102
-1199616505 156099.809566 497998.000001 1.730000 169 201 102
-1199616505 156099.730472 497997.669918 1.550000 169 201 102
-1199616505 156099.549806 497998.509764 1.630000 169 201 102
-1199616505 156099.500002 497998.330075 1.250000 169 201 102
-1199616505 156099.390630 497997.890139 1.360000 169 201 102
-1199616505 156098.980471 497998.169919 1.760000 169 201 102
-1199616505 156098.640629 497998.180178 1.740000 169 201 102
-1199616505 156096.290041 497999.830078 1.570000 169 201 102
-1199616505 156104.440435 497999.839840 1.810000 169 201 102
-1199616505 156104.009761 497998.129884 1.400000 169 201 102
-1199616505 156103.660156 497999.569822 1.570000 169 201 102
-1199616505 156103.610352 497997.979979 1.500000 169 201 102
-1199616505 156102.610354 497998.720214 1.180000 169 201 102
-1199616505 156102.529297 497999.040038 1.310000 169 201 102
-1199616505 156102.209958 497998.729984 1.810000 169 201 102
-1199616505 156102.089847 497997.509762 1.650000 169 201 102
-1199616505 156101.919921 497998.220213 1.710000 169 201 102
-1199616505 156101.700190 497999.160159 1.300000 169 201 102
-1199616505 156101.580079 497999.649900 1.030000 169 201 102
-1199616505 156101.540038 497999.830078 1.430000 169 201 102
-1199616505 156101.349609 497998.709963 1.130000 169 201 102
-1199616505 156101.240238 497999.200194 1.820000 169 201 102
-1199616505 156101.029294 497998.490231 1.460000 169 201 102
-1199616505 156100.889645 497999.109864 1.850000 169 201 102
-1199616505 156100.759771 497999.629886 1.420000 169 201 102
-1199616505 156100.830078 497997.859866 1.620000 169 201 102
-1199616505 156100.749997 497998.220213 1.620000 169 201 102
-1199616505 156100.620122 497996.899899 1.070000 169 201 102
-1199616505 156100.559567 497997.180177 1.220000 169 201 102
-1199616505 156100.450196 497997.629883 0.990000 169 201 102
-1199616505 156100.450196 497997.640134 1.960000 169 201 102
-1199616505 156100.250003 497998.450196 1.760000 169 201 102
-1199616505 156100.009770 497999.479982 1.200000 169 201 102
-1199616505 156100.049799 497997.740234 1.520000 169 201 102
-1199616505 156099.979492 497998.040036 1.760000 169 201 102
-1199616505 156099.859370 497998.509764 1.490000 169 201 102
-1199616505 156099.540043 497999.890135 1.040000 169 201 102
-1199616505 156099.609373 497997.589840 1.160000 169 201 102
-1199616505 156099.519529 497997.990231 1.170000 169 201 102
-1199616505 156099.450198 497998.259767 1.360000 169 201 102
-1199616505 156099.390630 497998.500001 1.660000 169 201 102
-1199616505 156099.299809 497998.879881 1.660000 169 201 102
-1199616505 156099.160160 497998.259767 1.390000 169 201 102
-1199616505 156098.690433 497998.020022 1.680000 169 201 102
-1199616505 156098.620115 497998.310062 1.880000 169 201 102
-1199616505 156097.650395 497999.129886 1.880000 169 201 102
-1199616505 156097.180668 497999.779783 1.010000 169 201 102
-1199616505 156096.709964 497999.459960 1.380000 169 201 102
-1199616505 156096.359372 497999.759762 1.480000 169 201 102
-1199616505 156097.520509 497999.970213 1.730000 169 201 102
-1199616505 156103.999998 497999.970213 1.840000 169 201 102
-1199616505 156098.750001 497999.970213 1.890000 169 201 102
-1199616505 156095.469722 498002.089840 1.190000 169 201 102
-1199616505 156095.580081 498002.540036 1.380000 169 201 102
-1199616505 156095.680665 498002.979980 1.550000 169 201 102
-1199616505 156095.709966 498001.600099 1.650000 169 201 102
-1199616505 156095.780273 498001.890138 1.410000 169 201 102
-1199616505 156095.919922 498002.479979 1.840000 169 201 102
-1199616505 156096.100588 498003.240236 1.050000 169 201 102
-1199616505 156096.190433 498001.879887 1.000000 169 201 102
-1199616505 156096.370123 498002.669919 1.940000 169 201 102
-1199616505 156096.480470 498003.100101 1.190000 169 201 102
-1199616505 156096.379886 498000.930179 1.080000 169 201 102
-1199616505 156096.679687 498000.270022 1.840000 169 201 102
-1199616505 156096.759768 498000.609867 1.710000 169 201 102
-1199616505 156096.959961 498001.439942 1.880000 169 201 102
-1199616505 156097.029292 498000.259763 1.360000 169 201 102
-1199616505 156097.149414 498000.770023 1.570000 169 201 102
-1199616505 156097.370121 498001.669925 0.980000 169 201 102
-1199616505 156097.529296 498002.370117 1.730000 169 201 102
-1199616505 156097.879877 498002.069826 1.960000 169 201 102
-1199616505 156098.200192 498001.939943 1.350000 169 201 102
-1199616505 156098.719723 498002.350096 1.520000 169 201 102
-1199616505 156099.179687 498004.270021 1.600000 169 201 102
-1199616505 156098.679683 498000.899898 1.890000 169 201 102
-1199616505 156098.679683 498000.890136 1.040000 169 201 102
-1199616505 156099.139646 498002.810062 1.960000 169 201 102
-1199616505 156099.370116 498003.790042 1.630000 169 201 102
-1199616505 156099.459961 498004.169922 1.580000 169 201 102
-1199616505 156099.569333 498004.640139 1.710000 169 201 102
-1199616505 156098.970707 498000.540040 1.630000 169 201 102
-1199616505 156099.390630 498002.319823 1.270000 169 201 102
-1199616505 156099.660154 498003.410154 1.050000 169 201 102
-1199616505 156099.910161 498004.470213 1.730000 169 201 102
-1199616505 156099.360353 498000.680175 1.550000 169 201 102
-1199616505 156099.759762 498002.359866 1.030000 169 201 102
-1199616505 156100.200199 498004.169922 1.660000 169 201 102
-1199616505 156100.290044 498004.549802 1.590000 169 201 102
-1199616505 156100.359375 498004.879884 1.460000 169 201 102
-1199616505 156100.279293 498002.790040 1.440000 169 201 102
-1199616505 156100.680666 498004.459961 1.650000 169 201 102
-1199616505 156100.299807 498001.509769 1.630000 169 201 102
-1199616505 156100.509763 498002.399901 1.000000 169 201 102
-1199616505 156101.150393 498005.060062 1.920000 169 201 102
-1199616505 156101.440430 498004.620117 1.870000 169 201 102
-1199616505 156101.530275 498005.020019 1.920000 169 201 102
-1199616505 156101.580079 498005.240232 1.590000 169 201 102
-1199616505 156101.349609 498002.839845 1.000000 169 201 102
-1199616505 156101.810549 498004.750001 1.860000 169 201 102
-1199616505 156101.879880 498005.049802 1.670000 169 201 102
-1199616505 156101.459957 498001.720212 1.380000 169 201 102
-1199616505 156101.639647 498002.459958 1.390000 169 201 102
-1199616505 156101.979488 498003.859861 0.980000 169 201 102
-1199616505 156102.100587 498004.359862 1.180000 169 201 102
-1199616505 156101.729491 498001.439942 1.020000 169 201 102
-1199616505 156101.900394 498002.149905 1.720000 169 201 102
-1199616505 156102.240235 498003.589843 1.540000 169 201 102
-1199616505 156102.330080 498003.979982 1.590000 169 201 102
-1199616505 156102.439452 498004.430178 1.730000 169 201 102
-1199616505 156101.940435 498000.910158 1.100000 169 201 102
-1199616505 156102.280276 498002.330074 1.750000 169 201 102
-1199616505 156102.549800 498003.450197 1.680000 169 201 102
-1199616505 156102.639645 498003.850099 1.710000 169 201 102
-1199616505 156102.719726 498004.160160 1.540000 169 201 102
-1199616505 156102.349607 498000.990236 1.150000 169 201 102
-1199616505 156102.509770 498001.669925 1.860000 169 201 102
-1199616505 156102.810547 498002.919923 1.190000 169 201 102
-1199616505 156102.930669 498003.390133 1.320000 169 201 102
-1199616505 156103.129886 498004.220216 1.590000 169 201 102
-1199616505 156103.240233 498004.689944 1.780000 169 201 102
-1199616505 156103.290037 498004.910157 1.440000 169 201 102
-1199616505 156102.490232 498000.040039 1.140000 169 201 102
-1199616505 156103.230470 498003.140136 1.270000 169 201 102
-1199616505 156103.419923 498003.919925 1.390000 169 201 102
-1199616505 156103.509768 498004.310056 1.380000 169 201 102
-1199616505 156103.620116 498004.770022 1.500000 169 201 102
-1199616505 156103.290037 498001.890138 1.570000 169 201 102
-1199616505 156103.439450 498002.529784 1.360000 169 201 102
-1199616505 156103.839846 498004.180173 1.590000 169 201 102
-1199616505 156103.339842 498000.479983 1.720000 169 201 102
-1199616505 156103.669920 498001.870117 1.290000 169 201 102
-1199616505 156104.299810 498004.509766 1.110000 169 201 102
-1199616505 156104.389644 498004.850100 1.080000 169 201 102
-1199616505 156103.690434 498000.390135 1.820000 169 201 102
-1199616505 156103.780278 498000.779785 1.790000 169 201 102
-1199616505 156103.999998 498001.689939 1.240000 169 201 102
-1199616505 156104.669918 498004.490234 1.460000 169 201 102
-1199616505 156104.719722 498004.669923 1.000000 169 201 102
-1199616505 156104.059565 498000.229979 1.910000 169 201 102
-1199616505 156095.209962 498002.149905 1.120000 169 201 102
