154670.750000 496352.875000 -3.326000 0
154670.828000 496353.219000 -3.315000 0
154670.922000 496353.563000 -3.484000 0
154671.000000 496353.844000 -3.514000 0
154671.078000 496354.188000 -3.614000 0
154671.172000 496354.531000 -3.656000 0
154671.250000 496354.844000 -3.620000 0
154671.328000 496355.156000 -3.556000 0
154671.422000 496355.500000 -3.527000 0
154671.516000 496355.875000 -2.458000 1
154671.500000 496355.781000 -3.597000 0
154671.609000 496356.219000 -1.800000 1
154671.578000 496356.125000 -3.536000 0
154671.672000 496356.438000 -3.491000 0
154671.750000 496356.750000 -3.501000 0
154671.828000 496357.031000 -3.515000 0
154671.922000 496357.438000 -2.205000 1
154671.906000 496357.344000 -3.551000 0
154672.000000 496357.688000 -3.554000 0
154672.063000 496358.000000 -3.566000 0
154672.156000 496358.313000 -3.456000 0
154672.250000 496358.656000 -3.518000 0
154672.313000 496358.938000 -3.513000 0
154672.406000 496359.281000 -3.603000 0
154672.484000 496359.625000 -3.648000 0
154672.563000 496359.906000 -3.659000 0
154672.641000 496360.219000 -3.626000 0
154672.734000 496360.563000 -3.631000 0
154672.828000 496360.875000 -3.626000 0
154672.938000 496361.344000 -1.170000 1
154672.906000 496361.188000 -3.663000 0
154673.125000 496362.063000 -0.779000 1
154673.203000 496362.344000 -0.777000 1
154673.281000 496362.688000 -0.531000 1
154673.266000 496362.563000 -2.193000 1
154673.438000 496363.250000 -1.661000 1
154673.406000 496363.125000 -3.596000 0
154673.516000 496363.594000 -1.193000 1
154673.484000 496363.469000 -3.582000 0
154673.609000 496363.906000 -1.188000 1
154673.578000 496363.781000 -3.619000 0
154673.688000 496364.250000 -0.717000 1
154673.781000 496364.594000 -0.708000 1
154673.844000 496364.844000 -2.178000 1
154673.953000 496365.250000 -0.792000 1
154673.906000 496365.063000 -3.611000 0
154674.031000 496365.563000 -0.760000 1
154673.984000 496365.406000 -3.625000 0
154674.109000 496365.875000 -1.056000 1
154674.078000 496365.719000 -3.434000 1
154674.188000 496366.156000 -1.547000 1
154674.156000 496366.063000 -3.476000 1
154674.266000 496366.438000 -1.528000 1
154674.234000 496366.344000 -3.616000 0
154674.344000 496366.781000 -1.631000 1
154674.313000 496366.656000 -3.649000 0
154674.406000 496366.969000 -3.645000 0
154674.469000 496367.250000 -3.608000 0
154674.563000 496367.594000 -3.592000 0
154674.641000 496367.938000 -3.679000 0
154674.719000 496368.219000 -3.637000 0
154674.813000 496368.531000 -3.632000 0
154674.891000 496368.875000 -3.600000 0
154674.984000 496369.188000 -3.440000 0
154675.063000 496369.500000 -3.560000 0
154675.188000 496370.000000 -0.424000 0
154675.141000 496369.844000 -3.593000 0
154675.219000 496370.156000 -3.622000 0
154675.297000 496370.469000 -3.552000 0
154675.391000 496370.813000 -3.531000 0
154675.484000 496371.125000 -3.605000 0
154675.563000 496371.438000 -3.581000 0
154675.641000 496371.781000 -3.557000 0
154675.734000 496372.125000 -3.414000 0
154675.813000 496372.406000 -3.423000 0
154675.906000 496372.781000 -1.808000 0
154675.891000 496372.719000 -3.316000 0
154675.984000 496373.063000 -3.560000 0
154676.063000 496373.375000 -3.452000 0
154676.156000 496373.750000 -1.781000 1
154676.141000 496373.688000 -3.489000 0
154676.234000 496374.031000 -3.445000 0
154676.328000 496374.375000 -2.804000 0
154676.313000 496374.344000 -3.581000 0
154676.391000 496374.656000 -3.522000 0
154676.484000 496375.000000 -3.339000 0
154676.563000 496375.313000 -3.490000 0
154676.641000 496375.625000 -3.415000 0
154676.734000 496375.938000 -3.483000 0
154676.828000 496376.344000 -1.658000 1
154676.813000 496376.250000 -3.481000 0
154676.891000 496376.563000 -3.420000 0
154676.969000 496376.875000 -3.456000 0
154677.047000 496377.188000 -3.413000 0
154677.141000 496377.500000 -3.511000 0
154677.219000 496377.813000 -3.486000 0
154677.297000 496378.156000 -3.385000 0
154677.391000 496378.469000 -3.368000 0
154677.453000 496378.750000 -3.428000 0
154677.547000 496379.094000 -3.356000 0
154677.641000 496379.438000 -3.282000 1
154677.703000 496379.719000 -3.493000 0
154677.797000 496380.031000 -3.479000 0
154677.875000 496380.375000 -3.480000 0
154677.969000 496380.688000 -3.440000 0
154678.063000 496381.094000 -1.726000 1
154678.047000 496381.031000 -3.536000 0
154678.156000 496381.469000 -1.386000 1
154678.141000 496381.375000 -3.432000 0
154678.234000 496381.781000 -1.465000 1
154678.219000 496381.688000 -3.442000 0
154678.375000 496382.313000 -3.514000 0
154678.453000 496382.625000 -3.530000 0
154678.547000 496382.938000 -3.469000 0
154678.656000 496383.344000 -1.465000 0
154678.625000 496383.281000 -3.448000 0
154678.719000 496383.594000 -3.457000 0
154678.797000 496383.906000 -3.532000 0
154678.875000 496384.250000 -3.448000 0
154678.969000 496384.594000 -3.400000 0
154679.047000 496384.875000 -3.407000 0
154679.125000 496385.219000 -3.497000 0
154679.219000 496385.531000 -3.456000 0
154679.297000 496385.844000 -3.439000 0
154679.375000 496386.156000 -3.365000 0
154679.453000 496386.469000 -3.319000 0
154679.531000 496386.781000 -3.438000 0
154679.609000 496387.063000 -3.402000 0
154679.703000 496387.406000 -3.511000 0
154679.781000 496387.719000 -3.443000 0
154679.859000 496388.031000 -3.462000 0
154679.953000 496388.344000 -3.554000 0
154680.031000 496388.688000 -3.495000 0
154680.125000 496389.063000 -1.989000 0
154680.109000 496389.000000 -3.474000 0
154680.203000 496389.313000 -3.421000 0
154680.281000 496389.656000 -3.506000 0
154680.375000 496390.000000 -2.281000 0
154680.359000 496389.938000 -3.505000 0
154680.438000 496390.281000 -3.413000 0
154680.531000 496390.625000 -3.367000 0
154680.609000 496390.938000 -3.407000 0
154670.438000 496350.250000 -2.125000 0
154670.422000 496350.156000 -3.520000 0
154670.500000 496350.469000 -3.428000 0
154670.578000 496350.781000 -3.449000 0
154670.656000 496351.094000 -3.456000 0
154670.750000 496351.406000 -3.364000 0
154670.828000 496351.719000 -3.328000 0
154670.906000 496352.063000 -3.463000 0
154671.000000 496352.406000 -3.153000 0
154671.078000 496352.719000 -3.281000 0
154671.172000 496353.031000 -3.258000 0
154671.250000 496353.375000 -3.519000 0
154671.328000 496353.656000 -3.570000 0
154671.406000 496353.969000 -3.593000 0
154671.500000 496354.313000 -3.580000 0
154671.578000 496354.625000 -3.508000 0
154671.656000 496354.938000 -3.544000 0
154671.750000 496355.250000 -3.580000 0
154671.828000 496355.563000 -3.511000 0
154671.906000 496355.875000 -3.556000 0
154671.984000 496356.188000 -3.606000 0
154672.078000 496356.531000 -3.504000 0
154672.141000 496356.813000 -3.496000 0
154672.234000 496357.156000 -3.533000 0
154672.313000 496357.469000 -3.523000 0
154672.406000 496357.781000 -3.534000 0
154672.516000 496358.219000 -1.612000 1
154672.484000 496358.125000 -3.420000 0
154672.578000 496358.469000 -3.418000 0
154672.656000 496358.750000 -3.530000 0
154672.750000 496359.156000 -1.829000 1
154672.734000 496359.063000 -3.542000 0
154672.813000 496359.406000 -3.655000 0
154672.906000 496359.719000 -3.634000 0
154672.984000 496360.031000 -3.568000 0
154673.078000 496360.375000 -3.563000 0
154673.172000 496360.781000 -2.332000 0
154673.156000 496360.719000 -3.607000 0
154673.234000 496361.000000 -3.623000 0
154673.344000 496361.438000 -1.278000 1
154673.313000 496361.313000 -3.619000 0
154673.438000 496361.813000 -0.956000 1
154673.406000 496361.656000 -3.652000 0
154673.516000 496362.125000 -1.080000 1
154673.484000 496361.969000 -3.657000 0
154673.688000 496362.781000 -0.985000 1
154673.734000 496362.938000 -3.615000 0
154673.875000 496363.469000 -0.309000 1
154673.844000 496363.375000 -1.677000 1
154673.813000 496363.250000 -3.661000 0
154673.953000 496363.781000 -0.369000 1
154673.906000 496363.563000 -3.651000 0
154674.047000 496364.125000 0.005000 1
154674.234000 496364.875000 -3.669000 0
154674.359000 496365.313000 -0.642000 1
154674.328000 496365.219000 -2.305000 1
154674.313000 496365.156000 -3.634000 0
154674.406000 496365.531000 -2.360000 1
154674.391000 496365.469000 -3.575000 0
154674.500000 496365.906000 -1.662000 1
154674.484000 496365.813000 -3.395000 1
154674.594000 496366.219000 -1.541000 1
154674.563000 496366.125000 -3.477000 1
154674.641000 496366.406000 -3.620000 0
154674.719000 496366.750000 -3.634000 0
154674.797000 496367.063000 -3.646000 0
154674.875000 496367.375000 -3.642000 0
154674.969000 496367.688000 -3.630000 0
154675.063000 496368.031000 -3.640000 0
154675.125000 496368.313000 -3.630000 0
154675.219000 496368.656000 -3.591000 0
154675.313000 496369.000000 -3.414000 0
154675.391000 496369.313000 -3.418000 0
154675.469000 496369.656000 -3.535000 0
154675.563000 496369.969000 -3.601000 0
154675.641000 496370.281000 -3.621000 0
154675.719000 496370.625000 -3.414000 0
154675.813000 496370.938000 -3.603000 0
154675.891000 496371.219000 -3.488000 0
154675.969000 496371.563000 -3.549000 0
154676.063000 496371.906000 -3.552000 0
154676.141000 496372.219000 -3.543000 0
154676.219000 496372.500000 -3.567000 0
154676.313000 496372.844000 -3.586000 0
154676.422000 496373.281000 -1.852000 1
154676.391000 496373.188000 -3.547000 0
154676.469000 496373.500000 -3.448000 0
154676.563000 496373.813000 -3.387000 0
154676.672000 496374.250000 -1.497000 1
154676.641000 496374.156000 -3.484000 0
154676.734000 496374.531000 -1.985000 1
154676.719000 496374.438000 -3.569000 0
154676.797000 496374.750000 -3.539000 0
154676.906000 496375.188000 -1.606000 1
154676.891000 496375.094000 -3.488000 0
154676.969000 496375.375000 -3.452000 0
154677.063000 496375.781000 -1.648000 0
154677.047000 496375.688000 -3.537000 0
154677.125000 496376.031000 -3.517000 0
154677.219000 496376.344000 -3.435000 0
154677.281000 496376.625000 -3.429000 0
154677.375000 496376.969000 -3.366000 0
154677.453000 496377.281000 -3.386000 0
154677.563000 496377.688000 -1.343000 0
154677.531000 496377.594000 -3.430000 0
154677.625000 496377.938000 -3.415000 0
154677.719000 496378.281000 -3.348000 0
154677.781000 496378.563000 -3.300000 1
154677.875000 496378.875000 -3.267000 1
154677.969000 496379.219000 -3.318000 0
154678.125000 496379.875000 -3.504000 0
154678.234000 496380.313000 -1.280000 1
154678.219000 496380.219000 -3.461000 0
154678.297000 496380.531000 -3.411000 0
154678.375000 496380.813000 -3.472000 0
154678.453000 496381.125000 -3.487000 0
154678.547000 496381.469000 -3.492000 0
154678.641000 496381.875000 -1.604000 1
154678.625000 496381.781000 -3.543000 0
154678.703000 496382.094000 -3.551000 0
154678.797000 496382.438000 -3.483000 0
154678.875000 496382.750000 -3.507000 0
154678.953000 496383.063000 -3.540000 0
154679.063000 496383.469000 -1.777000 0
154679.047000 496383.406000 -3.491000 0
154679.125000 496383.719000 -3.404000 0
154679.203000 496384.031000 -3.344000 0
154679.297000 496384.375000 -3.390000 0
154679.375000 496384.656000 -3.366000 0
154679.453000 496384.969000 -3.473000 0
154679.531000 496385.281000 -3.442000 0
154679.609000 496385.594000 -3.410000 0
154679.703000 496385.938000 -3.347000 0
154679.781000 496386.219000 -3.470000 0
154679.859000 496386.563000 -3.531000 0
154679.938000 496386.875000 -3.525000 0
154680.016000 496387.156000 -3.456000 0
154680.109000 496387.531000 -3.538000 0
154680.188000 496387.844000 -3.473000 0
154680.266000 496388.125000 -3.536000 0
154680.359000 496388.469000 -3.442000 0
154680.438000 496388.781000 -3.526000 0
154680.531000 496389.156000 -1.785000 0
154680.516000 496389.094000 -3.475000 0
154680.609000 496389.438000 -3.377000 0
154670.813000 496350.125000 -1.574000 0
154670.875000 496350.344000 -3.423000 0
154670.953000 496350.625000 -3.549000 0
154671.031000 496350.938000 -3.457000 0
154671.125000 496351.313000 -3.505000 0
154671.203000 496351.625000 -3.612000 0
154671.281000 496351.906000 -3.548000 0
154671.375000 496352.281000 -3.556000 0
154671.453000 496352.563000 -3.460000 0
154671.531000 496352.875000 -3.463000 0
154671.641000 496353.250000 -2.635000 0
154671.625000 496353.188000 -3.511000 0
154671.703000 496353.531000 -3.555000 0
154671.781000 496353.813000 -3.491000 0
154671.859000 496354.125000 -3.597000 0
154671.953000 496354.469000 -3.568000 0
154672.031000 496354.750000 -3.551000 0
154672.109000 496355.063000 -3.493000 0
154672.219000 496355.531000 -1.917000 0
154672.188000 496355.406000 -3.472000 0
154672.281000 496355.719000 -3.423000 0
154672.359000 496356.031000 -3.528000 0
154672.438000 496356.375000 -3.475000 0
154672.531000 496356.750000 -2.559000 0
154672.531000 496356.688000 -3.562000 0
154672.609000 496357.000000 -3.455000 0
154672.688000 496357.344000 -3.472000 0
154672.781000 496357.688000 -3.451000 0
154672.859000 496358.000000 -3.356000 0
154672.953000 496358.313000 -3.456000 0
154673.063000 496358.750000 -2.057000 1
154673.031000 496358.656000 -3.554000 0
154673.141000 496359.063000 -1.833000 1
154673.109000 496358.938000 -3.628000 0
154673.203000 496359.344000 -2.163000 1
154673.188000 496359.250000 -3.643000 0
154673.297000 496359.688000 -1.739000 1
154673.266000 496359.563000 -3.623000 0
154673.359000 496359.906000 -3.588000 0
154673.438000 496360.219000 -3.618000 0
154673.531000 496360.563000 -3.474000 0
154673.609000 496360.875000 -3.481000 0
154673.688000 496361.188000 -3.536000 0
154673.781000 496361.531000 -3.634000 0
154673.891000 496361.969000 -1.581000 1
154673.859000 496361.844000 -3.643000 0
154673.969000 496362.281000 -1.257000 1
154673.938000 496362.156000 -3.644000 0
154674.016000 496362.469000 -3.676000 0
154674.156000 496363.000000 -0.709000 1
154674.109000 496362.813000 -3.654000 0
154674.234000 496363.281000 -0.453000 1
154674.219000 496363.219000 -1.789000 1
154674.188000 496363.094000 -3.630000 0
154674.406000 496363.938000 -0.239000 1
154674.484000 496364.250000 -0.106000 1
154674.563000 496364.563000 -0.156000 1
154674.641000 496364.875000 -0.154000 1
154674.594000 496364.688000 -3.646000 0
154674.719000 496365.188000 -0.448000 1
154674.688000 496365.000000 -3.574000 0
154674.797000 496365.438000 -1.046000 1
154674.781000 496365.375000 -2.269000 1
154674.766000 496365.313000 -3.557000 0
154674.859000 496365.688000 -2.161000 1
154674.844000 496365.625000 -3.542000 0
154674.953000 496366.063000 -2.039000 1
154674.938000 496365.969000 -3.489000 1
154675.031000 496366.375000 -1.807000 1
154675.016000 496366.281000 -3.483000 1
154675.094000 496366.594000 -3.557000 0
154675.172000 496366.906000 -3.653000 0
154675.250000 496367.219000 -3.636000 0
154675.344000 496367.563000 -3.655000 0
154675.438000 496367.906000 -3.614000 0
154675.516000 496368.219000 -3.612000 0
154675.594000 496368.531000 -3.568000 0
154675.688000 496368.875000 -3.417000 0
154675.766000 496369.188000 -3.432000 0
154675.844000 496369.469000 -3.420000 0
154675.922000 496369.813000 -3.564000 0
154676.016000 496370.156000 -3.592000 0
154676.094000 496370.438000 -3.570000 0
154676.172000 496370.781000 -3.615000 0
154676.266000 496371.125000 -3.600000 0
154676.344000 496371.438000 -3.421000 0
154676.453000 496371.813000 -1.796000 0
154676.422000 496371.750000 -3.551000 0
154676.516000 496372.094000 -3.482000 0
154676.609000 496372.469000 -1.827000 0
154676.594000 496372.375000 -3.492000 0
154676.672000 496372.719000 -3.437000 0
154676.766000 496373.031000 -3.511000 0
154676.844000 496373.344000 -3.575000 0
154676.922000 496373.625000 -3.518000 0
154677.000000 496373.969000 -3.456000 0
154677.094000 496374.281000 -3.531000 0
154677.188000 496374.688000 -1.099000 0
154677.172000 496374.563000 -3.521000 0
154677.250000 496374.906000 -3.532000 0
154677.344000 496375.250000 -3.530000 0
154677.406000 496375.531000 -3.509000 0
154677.500000 496375.875000 -3.523000 0
154677.594000 496376.219000 -3.473000 0
154677.672000 496376.500000 -3.394000 0
154677.734000 496376.813000 -3.415000 0
154677.828000 496377.156000 -3.369000 0
154677.938000 496377.563000 -1.759000 0
154677.922000 496377.469000 -3.380000 0
154678.000000 496377.813000 -3.111000 1
154678.094000 496378.156000 -3.365000 0
154678.172000 496378.469000 -3.443000 0
154678.250000 496378.750000 -3.393000 0
154678.500000 496379.719000 -3.447000 0
154678.594000 496380.125000 -1.934000 1
154678.578000 496380.031000 -3.434000 0
154678.750000 496380.688000 -3.438000 0
154678.844000 496381.094000 -1.518000 1
154678.828000 496381.000000 -3.487000 0
154678.922000 496381.344000 -3.554000 0
154679.016000 496381.719000 -2.039000 1
154679.000000 496381.656000 -3.507000 0
154679.078000 496381.969000 -3.534000 0
154679.172000 496382.281000 -3.482000 0
154679.250000 496382.625000 -3.462000 0
154679.328000 496382.906000 -3.478000 0
154679.406000 496383.219000 -3.459000 0
154679.500000 496383.563000 -3.484000 0
154679.563000 496383.844000 -3.510000 0
154679.656000 496384.188000 -3.511000 0
154679.734000 496384.500000 -3.365000 0
154679.813000 496384.781000 -3.460000 0
154679.906000 496385.125000 -3.535000 0
154679.984000 496385.438000 -3.462000 0
154680.063000 496385.781000 -3.354000 0
154680.156000 496386.094000 -3.473000 0
154680.234000 496386.406000 -3.468000 0
154680.313000 496386.719000 -3.548000 0
154680.391000 496387.031000 -3.521000 0
154680.484000 496387.375000 -3.583000 0
154680.578000 496387.719000 -3.441000 0
154680.656000 496388.000000 -3.478000 0
154671.250000 496350.250000 -3.501000 0
154671.344000 496350.594000 -3.460000 0
154671.422000 496350.875000 -3.450000 0
154671.594000 496351.531000 -3.593000 0
154671.656000 496351.813000 -3.495000 0
154671.750000 496352.156000 -3.554000 0
154671.828000 496352.469000 -3.536000 0
154671.906000 496352.781000 -3.419000 0
154672.000000 496353.094000 -3.449000 0
154672.078000 496353.406000 -3.519000 0
154672.188000 496353.813000 -2.153000 0
154672.156000 496353.719000 -3.521000 0
154672.234000 496354.031000 -3.580000 0
154672.328000 496354.375000 -3.606000 0
154672.406000 496354.688000 -3.488000 0
154672.484000 496355.000000 -3.422000 0
154672.578000 496355.344000 -3.446000 0
154672.656000 496355.656000 -3.443000 0
154672.750000 496355.969000 -3.416000 0
154672.828000 496356.313000 -3.421000 0
154672.922000 496356.656000 -3.397000 0
154673.016000 496357.063000 -2.039000 1
154673.000000 496356.969000 -3.442000 0
154673.078000 496357.281000 -3.564000 0
154673.156000 496357.594000 -3.552000 0
154673.234000 496357.875000 -3.614000 0
154673.344000 496358.313000 -2.005000 1
154673.328000 496358.219000 -3.658000 0
154673.406000 496358.563000 -3.609000 0
154673.484000 496358.875000 -3.614000 0
154673.578000 496359.188000 -3.614000 0
154673.656000 496359.531000 -3.513000 0
154673.781000 496359.969000 -1.847000 1
154673.750000 496359.844000 -3.605000 0
154673.828000 496360.156000 -3.510000 0
154673.906000 496360.500000 -3.596000 0
154674.000000 496360.813000 -3.502000 0
154674.078000 496361.125000 -3.368000 0
154674.156000 496361.438000 -3.518000 0
154674.281000 496361.906000 -1.416000 1
154674.250000 496361.750000 -3.614000 0
154674.359000 496362.188000 -1.250000 1
154674.313000 496362.063000 -3.663000 0
154674.438000 496362.500000 -1.229000 1
154674.406000 496362.375000 -3.676000 0
154674.531000 496362.844000 -1.077000 1
154674.484000 496362.719000 -3.677000 0
154674.563000 496363.000000 -3.655000 0
154674.781000 496363.844000 -0.363000 1
154674.859000 496364.156000 -0.351000 1
154674.938000 496364.469000 -0.343000 1
154674.891000 496364.281000 -3.621000 0
154675.031000 496364.813000 -0.523000 1
154674.984000 496364.625000 -3.614000 0
154675.109000 496365.094000 -0.781000 1
154675.063000 496364.938000 -3.641000 0
154675.156000 496365.313000 -2.227000 1
154675.141000 496365.219000 -3.594000 0
154675.250000 496365.656000 -1.987000 1
154675.234000 496365.563000 -3.615000 0
154675.313000 496365.906000 -3.471000 1
154675.484000 496366.563000 -3.623000 0
154675.563000 496366.875000 -3.651000 0
154675.656000 496367.188000 -3.648000 0
154675.734000 496367.500000 -3.620000 0
154675.813000 496367.813000 -3.666000 0
154675.906000 496368.156000 -3.635000 0
154675.984000 496368.469000 -3.586000 0
154676.094000 496368.875000 -1.645000 0
154676.063000 496368.781000 -3.520000 0
154676.156000 496369.125000 -3.506000 0
154676.234000 496369.438000 -3.426000 0
154676.328000 496369.781000 -3.458000 0
154676.406000 496370.094000 -3.529000 0
154676.484000 496370.406000 -3.625000 0
154676.578000 496370.750000 -2.434000 0
154676.563000 496370.688000 -3.615000 0
154676.656000 496371.063000 -3.592000 0
154676.750000 496371.469000 -1.470000 0
154676.734000 496371.344000 -3.524000 0
154676.813000 496371.656000 -3.500000 0
154676.891000 496371.969000 -3.429000 0
154676.969000 496372.281000 -3.441000 0
154677.063000 496372.656000 -1.984000 0
154677.047000 496372.594000 -3.461000 0
154677.141000 496372.906000 -3.455000 0
154677.219000 496373.250000 -3.468000 0
154677.297000 496373.531000 -3.570000 0
154677.375000 496373.844000 -3.525000 0
154677.469000 496374.219000 -3.502000 0
154677.547000 496374.500000 -3.571000 0
154677.625000 496374.813000 -3.647000 0
154677.719000 496375.156000 -3.579000 0
154677.797000 496375.469000 -3.536000 0
154677.875000 496375.781000 -3.480000 0
154677.969000 496376.125000 -3.534000 0
154678.063000 496376.469000 -3.481000 0
154678.156000 496376.875000 -1.634000 0
154678.141000 496376.781000 -3.453000 0
154678.219000 496377.094000 -3.476000 0
154678.313000 496377.438000 -3.400000 0
154678.375000 496377.719000 -3.194000 1
154678.563000 496378.375000 -3.417000 0
154678.641000 496378.688000 -3.324000 0
154678.719000 496379.000000 -3.378000 0
154678.828000 496379.406000 -2.242000 1
154678.813000 496379.375000 -3.388000 0
154678.891000 496379.688000 -3.331000 1
154678.969000 496379.969000 -3.466000 0
154679.063000 496380.375000 -2.308000 0
154679.063000 496380.313000 -3.491000 0
154679.141000 496380.625000 -3.527000 0
154679.219000 496380.938000 -3.499000 0
154679.297000 496381.250000 -3.436000 0
154679.375000 496381.563000 -3.456000 0
154679.453000 496381.875000 -3.351000 0
154679.531000 496382.188000 -3.469000 0
154679.625000 496382.531000 -3.403000 0
154679.703000 496382.813000 -3.450000 0
154679.781000 496383.125000 -3.408000 0
154679.875000 496383.469000 -3.419000 0
154679.953000 496383.750000 -3.510000 0
154680.031000 496384.094000 -3.482000 0
154680.125000 496384.438000 -3.433000 0
154680.203000 496384.750000 -3.406000 0
154680.281000 496385.031000 -3.506000 0
154680.375000 496385.375000 -3.482000 0
154680.453000 496385.719000 -3.355000 0
154680.531000 496386.031000 -3.357000 0
154680.625000 496386.375000 -3.368000 0
154671.641000 496350.188000 -3.534000 0
154671.719000 496350.500000 -3.542000 0
154671.781000 496350.781000 -3.623000 0
154671.875000 496351.125000 -3.558000 0
154671.969000 496351.469000 -3.424000 0
154672.031000 496351.750000 -3.465000 0
154672.125000 496352.094000 -3.554000 0
154672.203000 496352.406000 -3.596000 0
154672.297000 496352.719000 -3.439000 0
154672.375000 496353.063000 -3.444000 0
154672.453000 496353.375000 -3.462000 0
154672.531000 496353.688000 -3.514000 0
154672.625000 496354.000000 -3.531000 0
154672.703000 496354.344000 -3.571000 0
154672.797000 496354.656000 -3.569000 0
154672.875000 496354.969000 -3.541000 0
154672.969000 496355.344000 -3.477000 0
154673.047000 496355.625000 -3.462000 0
154673.125000 496355.938000 -3.319000 0
154673.203000 496356.250000 -3.375000 0
154673.297000 496356.594000 -3.481000 0
154673.375000 496356.906000 -3.466000 0
154673.453000 496357.219000 -3.597000 0
154673.547000 496357.563000 -3.633000 0
154673.656000 496358.000000 -1.566000 1
154673.625000 496357.875000 -3.634000 0
154673.719000 496358.188000 -3.547000 0
154673.797000 496358.531000 -3.578000 0
154673.875000 496358.844000 -3.576000 0
154673.984000 496359.250000 -2.011000 1
154673.953000 496359.125000 -3.600000 0
154674.078000 496359.594000 -1.813000 1
154674.047000 496359.500000 -3.597000 0
154674.125000 496359.813000 -3.549000 0
154674.234000 496360.188000 -1.816000 1
154674.203000 496360.094000 -3.611000 0
154674.281000 496360.406000 -3.615000 0
154674.391000 496360.844000 -2.037000 0
154674.375000 496360.750000 -3.574000 0
154674.453000 496361.063000 -3.549000 0
154674.547000 496361.438000 -2.116000 1
154674.531000 496361.375000 -3.539000 0
154674.609000 496361.688000 -3.552000 0
154674.719000 496362.094000 -1.839000 1
154674.688000 496362.000000 -3.617000 0
154674.813000 496362.438000 -1.359000 1
154674.766000 496362.281000 -3.651000 0
154674.891000 496362.781000 -1.421000 1
154674.859000 496362.656000 -3.651000 0
154674.984000 496363.094000 -1.415000 1
154674.938000 496362.969000 -3.660000 0
154675.016000 496363.250000 -3.679000 0
154675.156000 496363.750000 -0.750000 1
154675.109000 496363.594000 -3.622000 0
154675.234000 496364.094000 -0.760000 1
154675.188000 496363.938000 -3.623000 0
154675.313000 496364.406000 -0.808000 1
154675.281000 496364.250000 -3.666000 0
154675.406000 496364.719000 -0.730000 1
154675.484000 496365.063000 -0.890000 1
154675.453000 496364.906000 -3.647000 0
154675.531000 496365.219000 -3.634000 0
154675.641000 496365.625000 -2.013000 1
154675.609000 496365.531000 -3.632000 0
154675.703000 496365.844000 -3.589000 0
154675.781000 496366.156000 -3.581000 0
154675.859000 496366.500000 -3.487000 1
154675.953000 496366.813000 -3.630000 0
154676.031000 496367.125000 -3.655000 0
154676.109000 496367.438000 -3.659000 0
154676.203000 496367.781000 -3.647000 0
154676.281000 496368.125000 -3.630000 0
154676.359000 496368.406000 -3.533000 0
154676.453000 496368.750000 -3.413000 0
154676.531000 496369.094000 -3.502000 0
154676.609000 496369.375000 -3.385000 0
154676.703000 496369.719000 -3.447000 0
154676.781000 496370.031000 -3.463000 0
154676.859000 496370.313000 -3.562000 0
154676.938000 496370.625000 -3.616000 0
154677.016000 496370.969000 -3.601000 0
154677.109000 496371.281000 -3.569000 0
154677.172000 496371.563000 -3.507000 0
154677.266000 496371.906000 -3.540000 0
154677.344000 496372.250000 -3.423000 0
154677.438000 496372.531000 -3.407000 0
154677.516000 496372.875000 -3.423000 0
154677.609000 496373.219000 -3.447000 0
154677.672000 496373.500000 -3.500000 0
154677.766000 496373.813000 -3.507000 0
154677.844000 496374.156000 -3.548000 0
154677.938000 496374.469000 -3.513000 0
154678.031000 496374.875000 -2.062000 0
154678.016000 496374.813000 -3.513000 0
154678.109000 496375.156000 -3.625000 0
154678.188000 496375.438000 -3.507000 0
154678.281000 496375.844000 -1.465000 0
154678.266000 496375.750000 -3.558000 0
154678.344000 496376.063000 -3.583000 0
154678.438000 496376.406000 -3.445000 0
154678.516000 496376.719000 -3.358000 0
154678.594000 496377.031000 -3.403000 0
154678.688000 496377.375000 -3.430000 0
154678.766000 496377.719000 -3.259000 1
154678.859000 496378.031000 -3.484000 0
154678.938000 496378.344000 -3.302000 1
154679.016000 496378.656000 -3.358000 0
154679.094000 496378.969000 -3.293000 1
154679.188000 496379.313000 -3.230000 1
154679.266000 496379.625000 -3.306000 0
154679.344000 496379.906000 -3.414000 0
154679.422000 496380.250000 -3.424000 0
154679.531000 496380.625000 -1.751000 1
154679.516000 496380.563000 -3.488000 0
154679.594000 496380.844000 -3.470000 0
154679.672000 496381.156000 -3.546000 0
154679.750000 496381.500000 -3.395000 0
154679.828000 496381.813000 -3.500000 0
154679.922000 496382.125000 -3.497000 0
154680.000000 496382.469000 -3.407000 0
154680.094000 496382.781000 -3.400000 0
154680.172000 496383.094000 -3.379000 0
154680.250000 496383.406000 -3.318000 0
154680.344000 496383.781000 -1.856000 0
154680.328000 496383.719000 -3.433000 0
154680.422000 496384.031000 -3.467000 0
154680.500000 496384.375000 -3.502000 0
154680.594000 496384.719000 -3.433000 0
154672.016000 496350.063000 -3.593000 0
154672.094000 496350.375000 -3.609000 0
154672.203000 496350.813000 -1.809000 0
154672.172000 496350.688000 -3.573000 0
154672.250000 496351.000000 -3.552000 0
154672.344000 496351.344000 -3.433000 0
154672.453000 496351.750000 -2.202000 0
154672.422000 496351.656000 -3.463000 0
154672.531000 496352.094000 -1.868000 0
154672.516000 496351.969000 -3.434000 0
154672.594000 496352.313000 -3.495000 0
154672.672000 496352.625000 -3.434000 0
154672.766000 496352.938000 -3.386000 0
154672.859000 496353.313000 -3.362000 0
154672.938000 496353.625000 -3.249000 0
154673.016000 496353.938000 -3.446000 0
154673.094000 496354.250000 -3.554000 0
154673.203000 496354.688000 -1.956000 0
154673.188000 496354.563000 -3.529000 0
154673.250000 496354.844000 -3.526000 0
154673.344000 496355.188000 -3.631000 0
154673.438000 496355.531000 -3.596000 0
154673.516000 496355.844000 -3.539000 0
154673.594000 496356.156000 -3.554000 0
154673.703000 496356.625000 -2.003000 1
154673.688000 496356.500000 -3.638000 0
154673.797000 496356.938000 -1.948000 1
154673.766000 496356.813000 -3.626000 0
154673.844000 496357.125000 -3.609000 0
154673.953000 496357.594000 -1.908000 1
154673.938000 496357.469000 -3.584000 0
154674.016000 496357.781000 -3.509000 0
154674.094000 496358.094000 -3.534000 0
154674.188000 496358.438000 -3.472000 0
154674.266000 496358.719000 -3.546000 0
154674.328000 496359.031000 -3.601000 0
154674.422000 496359.344000 -3.561000 0
154674.500000 496359.688000 -3.557000 0
154674.578000 496359.969000 -3.582000 0
154674.656000 496360.281000 -3.560000 0
154674.750000 496360.625000 -3.531000 0
154674.859000 496361.031000 -2.000000 0
154674.828000 496360.938000 -3.573000 0
154674.906000 496361.250000 -3.563000 0
154675.000000 496361.594000 -3.581000 0
154675.078000 496361.906000 -3.601000 0
154675.172000 496362.281000 -2.179000 1
154675.156000 496362.188000 -3.626000 0
154675.250000 496362.531000 -3.651000 0
154675.359000 496363.000000 -1.544000 1
154675.328000 496362.875000 -3.648000 0
154675.453000 496363.313000 -1.397000 1
154675.422000 496363.188000 -3.517000 0
154675.531000 496363.656000 -1.399000 1
154675.500000 496363.531000 -3.563000 0
154675.625000 496364.000000 -1.358000 1
154675.594000 496363.875000 -3.618000 0
154675.703000 496364.313000 -1.161000 1
154675.672000 496364.156000 -3.625000 0
154675.781000 496364.594000 -1.158000 1
154675.750000 496364.469000 -3.676000 0
154675.859000 496364.906000 -1.553000 1
154675.828000 496364.781000 -3.649000 0
154675.938000 496365.219000 -1.635000 1
154675.906000 496365.094000 -3.646000 0
154676.000000 496365.438000 -3.657000 0
154676.078000 496365.750000 -3.644000 0
154676.172000 496366.125000 -2.647000 1
154676.156000 496366.063000 -3.633000 0
154676.250000 496366.406000 -3.623000 0
154676.344000 496366.750000 -3.606000 0
154676.453000 496367.219000 -0.723000 0
154676.422000 496367.063000 -3.638000 0
154676.500000 496367.344000 -3.638000 0
154676.578000 496367.688000 -3.582000 0
154676.672000 496368.031000 -3.644000 0
154676.750000 496368.313000 -3.472000 0
154676.859000 496368.750000 -1.635000 0
154676.828000 496368.656000 -3.413000 0
154676.906000 496368.969000 -3.456000 0
154676.984000 496369.250000 -3.408000 0
154677.078000 496369.594000 -3.381000 0
154677.156000 496369.906000 -3.439000 0
154677.250000 496370.281000 -1.961000 0
154677.234000 496370.219000 -3.552000 0
154677.359000 496370.656000 -1.030000 0
154677.313000 496370.531000 -3.597000 0
154677.406000 496370.844000 -3.580000 0
154677.484000 496371.188000 -3.562000 0
154677.563000 496371.500000 -3.577000 0
154677.656000 496371.813000 -3.548000 0
154677.734000 496372.156000 -3.532000 0
154677.813000 496372.438000 -3.376000 0
154677.906000 496372.781000 -3.411000 0
154678.000000 496373.125000 -3.475000 0
154678.094000 496373.500000 -1.861000 0
154678.078000 496373.438000 -3.505000 0
154678.156000 496373.750000 -3.457000 0
154678.250000 496374.094000 -3.508000 0
154678.328000 496374.406000 -3.477000 0
154678.406000 496374.688000 -3.473000 0
154678.484000 496375.031000 -3.422000 0
154678.578000 496375.344000 -3.587000 0
154678.641000 496375.656000 -3.629000 0
154678.734000 496376.000000 -3.546000 0
154678.828000 496376.313000 -3.467000 0
154678.906000 496376.625000 -3.434000 0
154679.000000 496377.031000 -1.947000 0
154678.984000 496376.969000 -3.465000 0
154679.078000 496377.313000 -3.418000 0
154679.156000 496377.594000 -3.358000 0
154679.234000 496377.938000 -3.416000 0
154679.328000 496378.250000 -3.358000 0
154679.422000 496378.594000 -2.114000 0
154679.406000 496378.531000 -3.400000 0
154679.484000 496378.844000 -3.397000 0
154679.563000 496379.188000 -3.363000 0
154679.641000 496379.500000 -3.384000 0
154679.719000 496379.781000 -3.470000 0
154679.813000 496380.125000 -3.500000 0
154679.891000 496380.438000 -3.436000 0
154679.969000 496380.719000 -3.505000 0
154680.078000 496381.156000 -1.593000 1
154680.063000 496381.063000 -3.447000 0
154680.141000 496381.438000 -3.448000 0
154680.219000 496381.719000 -3.417000 0
154680.313000 496382.094000 -1.694000 1
154680.297000 496382.000000 -3.520000 0
154680.391000 496382.344000 -3.495000 0
154680.469000 496382.688000 -3.435000 0
154680.563000 496383.000000 -3.521000 0
154680.641000 496383.344000 -3.450000 0
154672.484000 496350.219000 -3.568000 0
154672.563000 496350.500000 -3.642000 0
154672.641000 496350.813000 -3.575000 0
154672.766000 496351.313000 -1.724000 0
154672.734000 496351.188000 -3.562000 0
154672.813000 496351.500000 -3.518000 0
154672.906000 496351.813000 -3.387000 0
154672.984000 496352.156000 -3.521000 0
154673.063000 496352.469000 -3.472000 0
154673.141000 496352.781000 -3.509000 0
154673.234000 496353.094000 -3.327000 0
154673.328000 496353.469000 -3.217000 0
154673.391000 496353.750000 -3.478000 0
154673.484000 496354.063000 -3.458000 0
154673.563000 496354.406000 -3.521000 0
154673.656000 496354.719000 -3.474000 0
154673.734000 496355.031000 -3.544000 0
154673.844000 496355.500000 -1.645000 1
154673.813000 496355.375000 -3.641000 0
154673.906000 496355.688000 -3.642000 0
154674.000000 496356.063000 -2.436000 1
154673.984000 496355.969000 -3.691000 0
154674.063000 496356.313000 -3.618000 0
154674.141000 496356.625000 -3.628000 0
154674.219000 496356.938000 -3.569000 0
154674.313000 496357.250000 -3.498000 0
154674.391000 496357.563000 -3.506000 0
154674.469000 496357.875000 -3.480000 0
154674.547000 496358.188000 -3.510000 0
154674.641000 496358.531000 -3.558000 0
154674.719000 496358.844000 -3.537000 0
154674.797000 496359.125000 -3.561000 0
154674.906000 496359.594000 -1.807000 1
154674.891000 496359.500000 -3.594000 0
154674.969000 496359.813000 -3.582000 0
154675.047000 496360.094000 -3.552000 0
154675.141000 496360.438000 -3.452000 0
154675.219000 496360.781000 -3.507000 0
154675.297000 496361.063000 -3.525000 0
154675.391000 496361.406000 -3.473000 0
154675.484000 496361.781000 -3.531000 0
154675.563000 496362.063000 -3.504000 0
154675.641000 496362.375000 -3.646000 0
154675.719000 496362.688000 -3.669000 0
154675.797000 496363.000000 -3.602000 0
154675.906000 496363.438000 -1.775000 1
154675.891000 496363.313000 -3.556000 0
154675.969000 496363.688000 -3.549000 0
154676.094000 496364.156000 -0.436000 1
154676.047000 496363.969000 -3.617000 0
154676.156000 496364.406000 -1.741000 1
154676.141000 496364.281000 -3.580000 0
154676.219000 496364.625000 -3.614000 0
154676.313000 496364.969000 -3.626000 0
154676.375000 496365.250000 -3.620000 0
154676.469000 496365.594000 -3.613000 0
154676.563000 496365.906000 -3.564000 0
154676.656000 496366.313000 -2.436000 1
154676.641000 496366.219000 -3.606000 0
154676.719000 496366.563000 -3.321000 0
154676.828000 496366.969000 -1.989000 0
154676.797000 496366.875000 -3.641000 0
154676.875000 496367.156000 -3.636000 0
154676.953000 496367.438000 -3.653000 0
154677.047000 496367.813000 -3.623000 0
154677.125000 496368.125000 -3.588000 0
154677.203000 496368.406000 -3.498000 0
154677.297000 496368.750000 -3.531000 0
154677.375000 496369.063000 -3.445000 0
154677.453000 496369.375000 -3.458000 0
154677.547000 496369.719000 -3.481000 0
154677.625000 496370.031000 -3.553000 0
154677.703000 496370.344000 -3.515000 0
154677.813000 496370.750000 -1.935000 1
154677.781000 496370.656000 -3.581000 0
154677.875000 496371.000000 -3.572000 0
154677.953000 496371.313000 -3.522000 0
154678.047000 496371.625000 -3.473000 0
154678.125000 496372.000000 -3.512000 0
154678.203000 496372.281000 -3.526000 0
154678.281000 496372.594000 -3.479000 0
154678.375000 496372.906000 -3.548000 0
154678.453000 496373.250000 -3.576000 0
154678.531000 496373.563000 -3.586000 0
154678.625000 496373.875000 -3.512000 0
154678.703000 496374.219000 -3.584000 0
154678.781000 496374.531000 -3.481000 0
154678.875000 496374.875000 -3.445000 0
154678.969000 496375.188000 -3.410000 0
154679.063000 496375.563000 -2.086000 0
154679.047000 496375.500000 -3.551000 0
154679.125000 496375.813000 -3.593000 0
154679.219000 496376.156000 -3.460000 0
154679.281000 496376.438000 -3.468000 0
154679.359000 496376.750000 -3.525000 0
154679.453000 496377.094000 -3.451000 0
154679.531000 496377.375000 -3.362000 0
154679.609000 496377.719000 -3.160000 0
154679.703000 496378.031000 -3.343000 0
154679.781000 496378.344000 -3.353000 0
154679.859000 496378.656000 -3.395000 0
154679.938000 496378.969000 -3.419000 0
154680.031000 496379.313000 -3.397000 0
154680.109000 496379.625000 -3.424000 0
154680.188000 496379.906000 -3.496000 0
154680.281000 496380.250000 -3.437000 0
154680.359000 496380.563000 -3.506000 0
154680.438000 496380.875000 -3.429000 0
154680.547000 496381.313000 -1.656000 1
154680.531000 496381.219000 -3.486000 0
154680.641000 496381.656000 -1.489000 1
154680.609000 496381.563000 -3.462000 0
154672.828000 496350.156000 -3.555000 0
154672.922000 496350.469000 -3.604000 0
154673.000000 496350.781000 -3.616000 0
154673.078000 496351.094000 -3.631000 0
154673.172000 496351.438000 -3.523000 0
154673.234000 496351.719000 -3.515000 0
154673.344000 496352.125000 -2.575000 0
154673.328000 496352.063000 -3.518000 0
154673.422000 496352.406000 -3.479000 0
154673.500000 496352.688000 -3.450000 0
154673.578000 496353.031000 -3.484000 0
154673.672000 496353.375000 -3.300000 0
154673.750000 496353.688000 -3.271000 0
154673.828000 496354.000000 -3.384000 0
154673.922000 496354.344000 -3.553000 0
154674.000000 496354.656000 -3.566000 0
154674.078000 496354.938000 -3.587000 0
154674.156000 496355.281000 -3.634000 0
154674.250000 496355.594000 -3.647000 0
154674.344000 496356.000000 -1.781000 1
154674.328000 496355.875000 -3.638000 0
154674.406000 496356.188000 -3.630000 0
154674.500000 496356.531000 -3.581000 0
154674.578000 496356.844000 -3.521000 0
154674.656000 496357.156000 -3.498000 0
154674.750000 496357.500000 -3.363000 0
154674.813000 496357.813000 -3.514000 0
154674.906000 496358.125000 -3.528000 0
154674.984000 496358.469000 -3.587000 0
154675.063000 496358.781000 -3.562000 0
154675.141000 496359.063000 -3.529000 0
154675.250000 496359.469000 -2.303000 1
154675.234000 496359.406000 -3.516000 0
154675.328000 496359.750000 -3.532000 0
154675.406000 496360.063000 -3.553000 0
154675.484000 496360.375000 -3.590000 0
154675.578000 496360.719000 -3.558000 0
154675.656000 496361.031000 -3.599000 0
154675.734000 496361.313000 -3.603000 0
154675.844000 496361.750000 -1.882000 1
154675.813000 496361.656000 -3.613000 0
154675.906000 496361.969000 -3.562000 0
154675.984000 496362.281000 -3.625000 0
154676.094000 496362.688000 -2.152000 0
154676.063000 496362.625000 -3.633000 0
154676.188000 496363.063000 -1.685000 1
154676.156000 496362.938000 -3.584000 0
154676.234000 496363.250000 -3.605000 0
154676.328000 496363.594000 -3.567000 0
154676.406000 496363.906000 -3.615000 0
154676.484000 496364.219000 -3.582000 0
154676.563000 496364.563000 -3.591000 0
154676.656000 496364.906000 -3.456000 0
154676.734000 496365.156000 -3.647000 0
154676.828000 496365.563000 -2.555000 1
154676.813000 496365.500000 -3.627000 0
154676.906000 496365.875000 -2.470000 1
154676.891000 496365.813000 -3.618000 0
154676.984000 496366.125000 -3.612000 0
154677.063000 496366.438000 -3.583000 0
154677.141000 496366.750000 -3.625000 0
154677.219000 496367.063000 -3.651000 0
154677.313000 496367.375000 -3.657000 0
154677.391000 496367.688000 -3.539000 0
154677.484000 496368.031000 -3.563000 0
154677.563000 496368.344000 -3.556000 0
154677.641000 496368.656000 -3.501000 0
154677.750000 496369.094000 -1.814000 1
154677.719000 496369.000000 -3.517000 0
154677.828000 496369.406000 -1.567000 1
154677.813000 496369.313000 -3.539000 0
154677.891000 496369.625000 -3.534000 0
154677.984000 496369.969000 -3.551000 0
154678.063000 496370.281000 -3.523000 0
154678.141000 496370.625000 -3.496000 0
154678.234000 496370.938000 -3.459000 0
154678.313000 496371.250000 -3.401000 0
154678.391000 496371.531000 -3.470000 0
154678.500000 496371.969000 -2.078000 0
154678.469000 496371.906000 -3.452000 0
154678.563000 496372.219000 -3.556000 0
154678.641000 496372.500000 -3.562000 0
154678.719000 496372.844000 -3.554000 0
154678.813000 496373.188000 -3.605000 0
154678.891000 496373.500000 -3.564000 0
154678.969000 496373.813000 -3.586000 0
154679.063000 496374.156000 -3.611000 0
154679.141000 496374.438000 -3.566000 0
154679.234000 496374.781000 -3.477000 0
154679.313000 496375.094000 -3.553000 0
154679.406000 496375.500000 -1.640000 0
154679.391000 496375.406000 -3.590000 0
154679.469000 496375.688000 -3.616000 0
154679.547000 496376.031000 -3.485000 0
154679.641000 496376.375000 -3.404000 0
154679.719000 496376.656000 -3.532000 0
154679.797000 496376.969000 -3.498000 0
154679.891000 496377.313000 -3.445000 0
154679.953000 496377.594000 -3.441000 0
154680.047000 496377.938000 -3.443000 0
154680.141000 496378.281000 -3.411000 0
154680.203000 496378.563000 -3.360000 0
154680.281000 496378.875000 -3.425000 0
154680.375000 496379.219000 -3.416000 0
154680.469000 496379.531000 -3.446000 0
154680.547000 496379.875000 -3.408000 0
154680.641000 496380.219000 -3.446000 0
154673.203000 496350.031000 -3.525000 0
154673.297000 496350.375000 -3.484000 0
154673.375000 496350.688000 -3.557000 0
154673.453000 496351.000000 -3.582000 0
154673.547000 496351.344000 -3.565000 0
154673.625000 496351.656000 -3.547000 0
154673.719000 496351.969000 -3.538000 0
154673.797000 496352.313000 -3.555000 0
154673.891000 496352.625000 -3.574000 0
154673.969000 496352.938000 -3.518000 0
154674.047000 496353.281000 -3.564000 0
154674.141000 496353.594000 -3.336000 0
154674.297000 496354.188000 -3.445000 0
154674.375000 496354.531000 -3.503000 0
154674.484000 496354.938000 -1.978000 1
154674.453000 496354.844000 -3.620000 0
154674.563000 496355.219000 -2.174000 1
154674.531000 496355.125000 -3.637000 0
154674.656000 496355.594000 -1.702000 1
154674.625000 496355.469000 -3.633000 0
154674.703000 496355.781000 -3.521000 0
154674.781000 496356.094000 -3.539000 0
154674.875000 496356.438000 -3.584000 0
154674.953000 496356.750000 -3.585000 0
154675.031000 496357.063000 -3.562000 0
154675.109000 496357.375000 -3.575000 0
154675.203000 496357.719000 -3.626000 0
154675.281000 496358.031000 -3.533000 0
154675.375000 496358.344000 -3.612000 0
154675.484000 496358.781000 -2.180000 1
154675.453000 496358.688000 -3.608000 0
154675.531000 496359.000000 -3.572000 0
154675.625000 496359.344000 -3.497000 0
154675.734000 496359.750000 -1.764000 1
154675.703000 496359.656000 -3.527000 0
154675.781000 496359.969000 -3.480000 0
154675.859000 496360.281000 -3.554000 0
154675.953000 496360.625000 -3.616000 0
154676.031000 496360.938000 -3.587000 0
154676.109000 496361.250000 -3.594000 0
154676.203000 496361.594000 -3.584000 0
154676.313000 496362.000000 -2.043000 1
154676.281000 496361.906000 -3.631000 0
154676.359000 496362.219000 -3.634000 0
154676.453000 496362.563000 -3.638000 0
154676.531000 496362.875000 -3.587000 0
154676.625000 496363.188000 -3.562000 0
154676.703000 496363.500000 -3.640000 0
154676.781000 496363.813000 -3.669000 0
154676.859000 496364.094000 -3.628000 0
154676.938000 496364.406000 -3.623000 0
154677.031000 496364.750000 -3.618000 0
154677.109000 496365.063000 -3.665000 0
154677.188000 496365.344000 -3.669000 0
154677.297000 496365.781000 -2.300000 1
154677.375000 496366.094000 -2.177000 1
154677.359000 496366.031000 -3.603000 0
154677.438000 496366.344000 -3.653000 0
154677.547000 496366.781000 -1.506000 1
154677.516000 496366.656000 -3.652000 0
154677.609000 496367.000000 -3.636000 0
154677.672000 496367.281000 -3.635000 0
154677.766000 496367.625000 -3.612000 0
154677.859000 496367.969000 -3.608000 0
154677.938000 496368.281000 -3.522000 0
154678.031000 496368.594000 -3.497000 0
154678.141000 496369.063000 -1.682000 1
154678.109000 496368.938000 -3.535000 0
154678.188000 496369.250000 -3.444000 0
154678.266000 496369.531000 -3.526000 0
154678.359000 496369.875000 -3.567000 0
154678.453000 496370.281000 -1.917000 1
154678.438000 496370.188000 -3.515000 0
154678.516000 496370.500000 -3.585000 0
154678.609000 496370.844000 -3.393000 0
154678.688000 496371.188000 -3.394000 0
154678.797000 496371.594000 -1.723000 0
154678.781000 496371.500000 -3.427000 0
154678.859000 496371.813000 -3.507000 0
154678.938000 496372.125000 -3.584000 0
154679.016000 496372.438000 -3.513000 0
154679.109000 496372.750000 -3.563000 0
154679.188000 496373.094000 -3.427000 0
154679.266000 496373.406000 -3.554000 0
154679.344000 496373.719000 -3.494000 0
154679.453000 496374.125000 -1.709000 0
154679.438000 496374.031000 -3.487000 0
154679.531000 496374.438000 -1.623000 0
154679.516000 496374.344000 -3.610000 0
154679.594000 496374.625000 -3.610000 0
154679.672000 496374.969000 -3.623000 0
154679.766000 496375.281000 -3.599000 0
154679.828000 496375.594000 -3.635000 0
154679.922000 496375.906000 -3.584000 0
154680.000000 496376.250000 -3.478000 0
154680.094000 496376.563000 -3.374000 0
154680.188000 496376.938000 -1.918000 0
154680.172000 496376.875000 -3.468000 0
154680.266000 496377.219000 -3.416000 0
154680.359000 496377.594000 -2.035000 0
154680.344000 496377.531000 -3.453000 0
154680.422000 496377.844000 -3.483000 0
154680.516000 496378.188000 -3.442000 0
154680.594000 496378.531000 -3.269000 0
154673.688000 496350.219000 -3.537000 0
154673.766000 496350.531000 -3.575000 0
154673.844000 496350.844000 -3.573000 0
154673.953000 496351.250000 -2.088000 0
154673.938000 496351.156000 -3.607000 0
154674.016000 496351.500000 -3.623000 0
154674.094000 496351.781000 -3.642000 0
154674.172000 496352.125000 -3.596000 0
154674.266000 496352.438000 -3.650000 0
154674.328000 496352.719000 -3.601000 0
154674.438000 496353.156000 -2.159000 0
154674.422000 496353.063000 -3.609000 0
154674.500000 496353.375000 -3.608000 0
154674.578000 496353.688000 -3.531000 0
154674.672000 496354.000000 -3.463000 0
154674.750000 496354.344000 -3.452000 0
154674.828000 496354.656000 -3.654000 0
154674.922000 496354.969000 -3.605000 0
154675.000000 496355.281000 -3.611000 0
154675.078000 496355.625000 -3.531000 0
154675.156000 496355.906000 -3.497000 0
154675.250000 496356.281000 -3.422000 0
154675.344000 496356.594000 -3.381000 0
154675.422000 496356.906000 -3.522000 0
154675.500000 496357.250000 -3.488000 0
154675.594000 496357.563000 -3.501000 0
154675.672000 496357.875000 -3.520000 0
154675.750000 496358.156000 -3.616000 0
