154246.422000 496663.469000 -3.433000 0
154246.500000 496663.781000 -3.440000 0
154246.594000 496664.125000 -3.429000 0
154246.594000 496664.188000 -1.722000 0
154246.672000 496664.469000 -3.406000 0
154246.766000 496664.813000 -3.465000 0
154246.781000 496664.906000 -2.010000 0
154246.844000 496665.156000 -3.496000 0
154246.938000 496665.500000 -3.527000 0
154246.859000 496665.250000 -0.446000 0
154247.016000 496665.813000 -3.538000 0
154247.094000 496666.125000 -3.610000 0
154247.172000 496666.500000 -3.535000 0
154247.266000 496666.813000 -3.462000 0
154247.328000 496667.094000 -3.297000 0
154247.422000 496667.469000 -3.482000 0
154247.516000 496667.844000 -3.513000 0
154247.594000 496668.156000 -3.483000 0
154247.672000 496668.500000 -3.583000 0
154247.766000 496668.844000 -3.561000 0
154247.844000 496669.125000 -3.476000 0
154247.922000 496669.469000 -3.418000 0
154248.000000 496669.813000 -3.445000 0
154248.094000 496670.125000 -3.483000 0
154248.156000 496670.438000 -3.468000 0
154248.250000 496670.781000 -3.487000 0
154248.328000 496671.063000 -3.311000 0
154248.406000 496671.406000 -3.431000 0
154248.484000 496671.750000 -3.486000 0
154248.578000 496672.094000 -3.545000 0
154248.578000 496672.063000 -1.809000 0
154248.656000 496672.438000 -3.627000 0
154248.750000 496672.750000 -3.570000 0
154248.828000 496673.094000 -3.449000 0
154248.906000 496673.406000 -3.495000 0
154248.984000 496673.719000 -3.401000 0
154249.063000 496674.063000 -3.397000 0
154249.156000 496674.406000 -3.438000 0
154249.234000 496674.719000 -3.362000 0
154249.328000 496675.094000 -3.389000 0
154249.344000 496675.156000 -1.976000 0
154249.406000 496675.438000 -3.419000 0
154249.406000 496675.406000 -1.679000 0
154249.484000 496675.719000 -3.337000 0
154249.563000 496676.063000 -3.388000 0
154249.547000 496675.969000 -1.240000 0
154249.656000 496676.375000 -3.357000 0
154249.734000 496676.719000 -3.346000 0
154249.813000 496677.063000 -3.364000 0
154249.906000 496677.406000 -3.385000 0
154249.984000 496677.750000 -3.437000 0
154250.078000 496678.094000 -3.552000 0
154250.156000 496678.469000 -3.541000 0
154250.125000 496678.281000 -1.173000 0
154250.234000 496678.750000 -3.442000 0
154250.328000 496679.125000 -3.569000 0
154250.406000 496679.406000 -3.436000 0
154250.484000 496679.750000 -3.484000 0
154250.578000 496680.094000 -3.528000 0
154250.656000 496680.406000 -3.512000 0
154250.734000 496680.719000 -3.464000 0
154250.813000 496681.031000 -3.448000 0
154250.891000 496681.406000 -3.449000 0
154250.984000 496681.719000 -3.430000 0
154251.063000 496682.031000 -3.501000 0
154251.141000 496682.375000 -3.492000 0
154251.156000 496682.438000 -2.157000 0
154251.219000 496682.688000 -3.405000 0
154251.313000 496683.063000 -3.519000 0
154251.391000 496683.375000 -3.466000 0
154251.469000 496683.719000 -3.379000 0
154251.438000 496683.563000 -1.069000 0
154251.547000 496684.031000 -3.410000 0
154251.641000 496684.375000 -3.442000 0
154251.719000 496684.719000 -3.449000 0
154251.813000 496685.063000 -3.400000 0
154251.891000 496685.375000 -3.353000 0
154251.984000 496685.750000 -3.413000 0
154252.063000 496686.063000 -3.440000 0
154252.141000 496686.375000 -3.380000 0
154252.219000 496686.688000 -3.296000 0
154252.313000 496687.063000 -3.423000 0
154252.391000 496687.375000 -3.379000 0
154252.469000 496687.719000 -3.414000 0
154252.484000 496687.750000 -1.899000 0
154252.563000 496688.063000 -3.418000 0
154252.531000 496687.969000 -1.318000 0
154252.641000 496688.375000 -3.347000 0
154252.734000 496688.750000 -3.466000 0
154252.734000 496688.750000 -1.861000 1
154252.813000 496689.063000 -3.374000 0
154252.906000 496689.438000 -3.508000 0
154252.984000 496689.750000 -3.459000 0
154253.063000 496690.094000 -3.502000 0
154253.156000 496690.438000 -3.544000 0
154253.219000 496690.719000 -3.404000 0
154253.313000 496691.031000 -3.420000 0
154253.391000 496691.375000 -3.442000 0
154253.469000 496691.719000 -3.423000 0
154253.547000 496692.031000 -3.425000 0
154253.641000 496692.375000 -3.402000 0
154253.719000 496692.688000 -3.416000 0
154253.797000 496693.031000 -3.446000 0
154253.891000 496693.375000 -3.413000 0
154253.969000 496693.719000 -3.400000 0
154254.047000 496694.031000 -3.473000 0
154254.141000 496694.375000 -3.418000 0
154254.219000 496694.719000 -3.389000 0
154254.297000 496695.031000 -3.395000 0
154254.391000 496695.375000 -3.437000 0
154254.484000 496695.750000 -3.489000 0
154254.563000 496696.094000 -3.454000 0
154254.641000 496696.406000 -3.404000 0
154254.719000 496696.719000 -3.413000 0
154254.703000 496696.688000 -1.656000 0
154254.797000 496697.063000 -3.400000 0
154254.891000 496697.406000 -3.498000 0
154254.984000 496697.781000 -3.526000 0
154254.953000 496697.656000 -1.388000 0
154255.063000 496698.094000 -3.495000 0
154255.031000 496698.000000 -1.526000 1
154255.141000 496698.438000 -3.593000 0
154255.125000 496698.375000 -1.638000 1
154255.234000 496698.781000 -3.589000 0
154255.328000 496699.156000 -3.599000 0
154255.266000 496698.938000 -1.206000 1
154255.406000 496699.469000 -3.653000 0
154255.359000 496699.281000 -1.114000 1
154255.484000 496699.813000 -3.592000 0
154255.516000 496699.906000 -2.413000 0
154255.438000 496699.625000 0.373000 1
154255.500000 496699.875000 0.636000 1
154244.703000 496655.000000 -3.423000 0
154244.781000 496655.281000 -3.424000 0
154244.875000 496655.656000 -3.448000 0
154244.953000 496656.000000 -3.419000 0
154245.031000 496656.313000 -3.425000 0
154245.109000 496656.625000 -3.333000 0
154245.203000 496656.969000 -3.337000 0
154245.266000 496657.250000 -3.301000 0
154245.359000 496657.625000 -3.363000 0
154245.453000 496657.969000 -3.413000 0
154245.516000 496658.250000 -3.348000 0
154245.594000 496658.563000 -3.343000 0
154245.672000 496658.875000 -3.184000 0
154245.766000 496659.250000 -3.282000 0
154245.766000 496659.250000 -1.656000 0
154245.844000 496659.563000 -3.408000 0
154245.844000 496659.531000 -1.407000 0
154245.922000 496659.875000 -3.331000 0
154246.016000 496660.219000 -3.313000 1
154246.047000 496660.375000 -2.484000 1
154246.094000 496660.563000 -3.400000 0
154246.109000 496660.625000 -1.977000 0
154246.172000 496660.875000 -3.389000 0
154246.266000 496661.250000 -3.321000 0
154246.328000 496661.531000 -3.255000 0
154246.516000 496662.219000 -3.385000 0
154246.594000 496662.531000 -3.308000 0
154246.672000 496662.875000 -3.370000 0
154246.688000 496662.938000 -1.740000 1
154246.766000 496663.250000 -3.415000 0
154246.734000 496663.125000 -0.919000 0
154246.844000 496663.563000 -3.391000 0
154246.922000 496663.875000 -3.383000 0
154247.016000 496664.219000 -3.460000 0
154247.094000 496664.563000 -3.479000 0
154247.094000 496664.563000 -1.715000 0
154247.172000 496664.875000 -3.543000 0
154247.266000 496665.250000 -3.576000 0
154247.344000 496665.563000 -3.529000 0
154247.422000 496665.875000 -3.527000 0
154247.516000 496666.250000 -3.547000 0
154247.516000 496666.250000 -1.641000 0
154247.609000 496666.594000 -3.584000 0
154247.672000 496666.906000 -3.521000 0
154247.750000 496667.219000 -3.430000 0
154247.844000 496667.563000 -3.548000 0
154247.922000 496667.906000 -3.590000 0
154248.000000 496668.188000 -3.497000 0
154248.094000 496668.563000 -3.541000 0
154248.172000 496668.875000 -3.557000 0
154248.234000 496669.188000 -3.530000 0
154248.328000 496669.531000 -3.481000 0
154248.406000 496669.813000 -3.308000 0
154248.484000 496670.125000 -3.403000 0
154248.484000 496670.156000 -1.696000 0
154248.578000 496670.500000 -3.469000 0
154248.656000 496670.813000 -3.422000 0
154248.734000 496671.156000 -3.430000 0
154248.813000 496671.500000 -3.454000 0
154248.906000 496671.844000 -3.525000 0
154248.984000 496672.156000 -3.545000 0
154249.078000 496672.500000 -3.592000 0
154249.156000 496672.844000 -3.539000 0
154249.234000 496673.156000 -3.373000 0
154249.313000 496673.500000 -3.445000 0
154249.406000 496673.844000 -3.468000 0
154249.484000 496674.156000 -3.343000 0
154249.563000 496674.469000 -3.403000 0
154249.641000 496674.813000 -3.447000 0
154249.734000 496675.156000 -3.366000 0
154249.813000 496675.500000 -3.425000 0
154249.906000 496675.813000 -3.474000 0
154249.984000 496676.188000 -3.457000 0
154250.063000 496676.500000 -3.426000 0
154250.156000 496676.844000 -3.442000 0
154250.172000 496676.906000 -1.993000 0
154250.234000 496677.188000 -3.474000 0
154250.328000 496677.500000 -3.451000 0
154250.391000 496677.781000 -3.257000 0
154250.422000 496677.906000 -2.069000 0
154250.500000 496678.219000 -3.604000 0
154250.578000 496678.531000 -3.521000 0
154250.656000 496678.844000 -3.557000 0
154250.734000 496679.156000 -3.586000 0
154250.813000 496679.500000 -3.558000 0
154250.906000 496679.813000 -3.560000 0
154250.969000 496680.125000 -3.475000 0
154251.063000 496680.469000 -3.459000 0
154251.141000 496680.813000 -3.507000 0
154251.141000 496680.813000 -1.974000 0
154251.219000 496681.094000 -3.444000 0
154251.313000 496681.469000 -3.409000 0
154251.328000 496681.531000 -2.007000 0
154251.391000 496681.813000 -3.434000 0
154251.469000 496682.094000 -3.414000 0
154251.469000 496682.094000 -1.615000 0
154251.563000 496682.469000 -3.559000 0
154251.641000 496682.813000 -3.490000 0
154251.719000 496683.125000 -3.450000 0
154251.813000 496683.469000 -3.417000 0
154251.891000 496683.813000 -3.302000 0
154251.984000 496684.156000 -3.461000 0
154252.063000 496684.469000 -3.466000 0
154252.141000 496684.813000 -3.382000 0
154252.219000 496685.125000 -3.387000 0
154252.297000 496685.438000 -3.363000 0
154252.266000 496685.344000 -1.055000 0
154252.391000 496685.813000 -3.396000 0
154252.406000 496685.906000 -2.300000 0
154252.469000 496686.156000 -3.463000 0
154252.469000 496686.156000 -1.895000 0
154252.547000 496686.469000 -3.392000 0
154252.641000 496686.813000 -3.288000 0
154252.719000 496687.156000 -3.341000 0
154252.797000 496687.438000 -3.280000 0
154252.781000 496687.406000 -1.321000 0
154252.891000 496687.813000 -3.325000 0
154252.984000 496688.156000 -3.424000 0
154253.063000 496688.500000 -3.458000 0
154253.141000 496688.813000 -3.383000 0
154253.219000 496689.156000 -3.428000 0
154253.219000 496689.156000 -1.915000 1
154253.297000 496689.438000 -3.315000 0
154253.391000 496689.781000 -3.499000 0
154253.469000 496690.156000 -3.512000 0
154253.547000 496690.469000 -3.483000 0
154253.625000 496690.750000 -3.440000 0
154253.719000 496691.094000 -3.375000 0
154253.797000 496691.438000 -3.349000 0
154253.891000 496691.813000 -3.534000 0
154253.969000 496692.125000 -3.382000 0
154254.047000 496692.469000 -3.402000 0
154254.125000 496692.750000 -3.404000 0
154254.219000 496693.125000 -3.471000 0
154254.219000 496693.125000 -1.718000 0
154254.297000 496693.469000 -3.438000 0
154254.391000 496693.813000 -3.410000 0
154254.469000 496694.125000 -3.393000 0
154254.547000 496694.469000 -3.347000 0
154254.625000 496694.781000 -3.282000 0
154254.703000 496695.125000 -3.383000 0
154254.797000 496695.469000 -3.481000 0
154254.891000 496695.813000 -3.480000 0
154254.969000 496696.156000 -3.452000 0
154255.047000 496696.469000 -3.454000 0
154255.141000 496696.844000 -3.437000 0
154255.156000 496696.938000 -2.373000 0
154255.234000 496697.188000 -3.568000 0
154255.313000 496697.531000 -3.606000 0
154255.406000 496697.875000 -3.573000 0
154255.484000 496698.219000 -3.601000 0
154255.563000 496698.531000 -3.597000 0
154255.547000 496698.469000 -1.592000 1
154255.656000 496698.875000 -3.547000 0
154255.594000 496698.656000 -0.944000 1
154255.688000 496699.000000 -2.667000 0
154255.656000 496698.938000 -0.843000 1
154255.813000 496699.531000 -3.630000 0
154255.891000 496699.844000 -3.575000 0
154255.844000 496699.688000 0.252000 1
154244.734000 496653.500000 -3.517000 0
154244.813000 496653.844000 -3.486000 0
154244.891000 496654.156000 -3.482000 0
154244.969000 496654.469000 -3.357000 0
154245.063000 496654.844000 -3.449000 0
154245.031000 496654.750000 -1.134000 0
154245.141000 496655.125000 -3.366000 0
154245.156000 496655.219000 -1.931000 0
154245.219000 496655.469000 -3.352000 0
154245.234000 496655.500000 -1.620000 0
154245.313000 496655.844000 -3.460000 0
154245.391000 496656.125000 -3.365000 0
154245.469000 496656.438000 -3.331000 0
154245.625000 496657.125000 -3.434000 0
154245.625000 496657.094000 -1.617000 0
154245.688000 496657.375000 -3.135000 0
154245.781000 496657.719000 -3.187000 0
154245.875000 496658.094000 -3.442000 0
154245.953000 496658.375000 -3.416000 0
154246.031000 496658.750000 -3.445000 0
154246.047000 496658.813000 -1.882000 1
154246.109000 496659.063000 -3.349000 0
154246.109000 496659.063000 -1.515000 1
154246.203000 496659.406000 -3.379000 0
154246.281000 496659.719000 -3.265000 0
154246.375000 496660.063000 -3.376000 0
154246.438000 496660.344000 -3.243000 1
154246.531000 496660.719000 -3.371000 0
154246.625000 496661.063000 -3.398000 0
154246.703000 496661.406000 -3.418000 0
154246.688000 496661.375000 -1.412000 0
154246.781000 496661.750000 -3.445000 0
154246.875000 496662.094000 -3.397000 0
154246.953000 496662.438000 -3.455000 0
154246.969000 496662.469000 -2.056000 0
154247.031000 496662.719000 -3.484000 0
154247.031000 496662.719000 -1.712000 1
154247.109000 496663.031000 -3.351000 0
154247.203000 496663.406000 -3.374000 0
154247.281000 496663.719000 -3.394000 0
154247.266000 496663.656000 -1.376000 1
154247.359000 496664.031000 -3.377000 0
154247.453000 496664.406000 -3.492000 0
154247.531000 496664.750000 -3.545000 0
154247.625000 496665.094000 -3.501000 0
154247.703000 496665.438000 -3.495000 0
154247.781000 496665.750000 -3.446000 0
154247.859000 496666.031000 -3.409000 0
154247.953000 496666.438000 -3.516000 0
154248.031000 496666.750000 -3.564000 0
154248.109000 496667.063000 -3.547000 0
154248.188000 496667.375000 -3.486000 0
154248.281000 496667.719000 -3.531000 0
154248.344000 496668.031000 -3.474000 0
154248.438000 496668.375000 -3.507000 0
154248.516000 496668.688000 -3.488000 0
154248.547000 496668.813000 -2.371000 0
154248.609000 496669.031000 -3.570000 0
154248.688000 496669.344000 -3.547000 0
154248.766000 496669.688000 -3.438000 0
154248.844000 496670.031000 -3.427000 0
154248.922000 496670.344000 -3.487000 0
154249.016000 496670.656000 -3.447000 0
154249.094000 496671.000000 -3.459000 0
154249.188000 496671.344000 -3.530000 0
154249.266000 496671.719000 -3.523000 0
154249.359000 496672.063000 -3.564000 0
154249.391000 496672.156000 -2.476000 0
154249.438000 496672.375000 -3.600000 0
154249.516000 496672.688000 -3.540000 0
154249.609000 496673.031000 -3.520000 0
154249.672000 496673.344000 -3.481000 0
154249.766000 496673.656000 -3.448000 0
154249.844000 496674.031000 -3.404000 0
154249.938000 496674.344000 -3.491000 0
154249.938000 496674.375000 -1.983000 0
154250.016000 496674.656000 -3.450000 0
154250.094000 496675.031000 -3.420000 0
154250.172000 496675.344000 -3.292000 0
154250.250000 496675.656000 -3.406000 0
154250.359000 496676.063000 -3.486000 0
154250.422000 496676.344000 -3.396000 0
154250.516000 496676.656000 -3.388000 0
154250.594000 496677.000000 -3.374000 0
154250.672000 496677.344000 -3.448000 0
154250.672000 496677.344000 -1.886000 0
154250.750000 496677.656000 -3.447000 0
154250.844000 496678.000000 -3.580000 0
154250.922000 496678.344000 -3.537000 0
154251.000000 496678.656000 -3.461000 0
154251.078000 496678.938000 -3.455000 0
154251.172000 496679.313000 -3.563000 0
154251.250000 496679.656000 -3.605000 0
154251.328000 496679.969000 -3.530000 0
154251.422000 496680.313000 -3.386000 0
154251.500000 496680.625000 -3.417000 0
154251.578000 496680.938000 -3.476000 0
154251.672000 496681.313000 -3.514000 0
154251.672000 496681.313000 -1.791000 0
154251.750000 496681.625000 -3.393000 0
154251.828000 496681.969000 -3.447000 0
154251.922000 496682.344000 -3.505000 0
154252.016000 496682.688000 -3.496000 0
154251.984000 496682.625000 -1.659000 1
154252.078000 496683.000000 -3.492000 0
154252.063000 496682.906000 -1.429000 0
154252.156000 496683.313000 -3.435000 0
154252.125000 496683.156000 -1.016000 0
154252.250000 496683.656000 -3.435000 0
154252.328000 496683.969000 -3.388000 0
154252.422000 496684.313000 -3.502000 0
154252.500000 496684.625000 -3.441000 0
154252.578000 496685.000000 -3.424000 0
154252.672000 496685.313000 -3.517000 0
154252.750000 496685.656000 -3.395000 0
154252.844000 496686.000000 -3.455000 0
154252.781000 496685.781000 -0.738000 0
154252.922000 496686.313000 -3.449000 0
154253.000000 496686.656000 -3.437000 0
154253.094000 496687.000000 -3.390000 0
154253.172000 496687.344000 -3.436000 0
154253.156000 496687.313000 -1.911000 0
154253.234000 496687.594000 -3.220000 0
154253.359000 496688.063000 -2.315000 0
154253.406000 496688.281000 -3.392000 0
154253.406000 496688.313000 -1.922000 0
154253.484000 496688.594000 -3.347000 0
154253.469000 496688.563000 -1.492000 0
154253.578000 496688.969000 -3.404000 0
154253.656000 496689.281000 -3.419000 0
154253.672000 496689.375000 -2.285000 0
154253.734000 496689.625000 -3.493000 0
154253.734000 496689.594000 -1.688000 0
154253.813000 496689.938000 -3.436000 0
154253.906000 496690.313000 -3.500000 0
154254.000000 496690.625000 -3.490000 0
154254.078000 496690.969000 -3.492000 0
154254.156000 496691.313000 -3.524000 0
154254.250000 496691.625000 -3.507000 0
154254.234000 496691.625000 -1.850000 0
154254.328000 496691.969000 -3.481000 0
154254.406000 496692.313000 -3.434000 0
154254.500000 496692.656000 -3.406000 0
154254.578000 496692.969000 -3.397000 0
154254.672000 496693.344000 -3.449000 0
154254.750000 496693.656000 -3.427000 0
154254.828000 496693.969000 -3.421000 0
154254.891000 496694.281000 -3.252000 0
154255.000000 496694.656000 -3.314000 0
154255.078000 496694.969000 -3.366000 0
154255.156000 496695.313000 -3.480000 0
154255.141000 496695.250000 -1.370000 0
154255.250000 496695.688000 -3.471000 0
154255.328000 496696.031000 -3.481000 0
154255.406000 496696.344000 -3.436000 0
154255.500000 496696.719000 -3.508000 0
154255.500000 496696.656000 -1.795000 0
154255.594000 496697.031000 -3.535000 0
154255.672000 496697.344000 -3.515000 0
154255.750000 496697.688000 -3.518000 0
154255.844000 496698.031000 -3.565000 0
154255.906000 496698.344000 -3.616000 0
154255.844000 496698.063000 -0.655000 1
154256.000000 496698.688000 -3.591000 0
154255.922000 496698.375000 -0.430000 1
154256.016000 496698.781000 -0.968000 1
154256.109000 496699.125000 -2.532000 0
154256.172000 496699.344000 -3.660000 0
154256.094000 496699.063000 -0.790000 1
154256.188000 496699.469000 -2.603000 0
154256.234000 496699.656000 -3.535000 0
154256.313000 496699.906000 -3.027000 0
154256.188000 496699.469000 0.431000 1
154256.281000 496699.813000 0.480000 1
154244.703000 496652.000000 -3.391000 0
154244.797000 496652.344000 -3.413000 0
154244.875000 496652.719000 -3.374000 0
154244.969000 496653.031000 -3.396000 0
154245.047000 496653.375000 -3.418000 0
154245.141000 496653.719000 -3.483000 0
154245.219000 496654.031000 -3.476000 0
154245.203000 496654.031000 -1.565000 0
154245.281000 496654.344000 -3.336000 0
154245.375000 496654.719000 -3.476000 0
154245.453000 496655.031000 -3.460000 0
154245.531000 496655.313000 -3.406000 0
154245.609000 496655.625000 -3.392000 0
154245.703000 496656.000000 -3.399000 0
154245.781000 496656.313000 -3.431000 0
154245.859000 496656.594000 -3.338000 0
154245.953000 496656.969000 -3.473000 0
154245.953000 496657.000000 -1.878000 0
154246.016000 496657.250000 -3.372000 0
154246.094000 496657.594000 -3.306000 0
154246.203000 496657.969000 -3.463000 0
154246.188000 496657.969000 -1.643000 0
154246.266000 496658.281000 -3.384000 0
154246.344000 496658.594000 -3.501000 0
154246.438000 496658.938000 -3.447000 0
154246.531000 496659.281000 -3.453000 0
154246.609000 496659.594000 -3.422000 0
154246.688000 496659.969000 -3.355000 0
154246.781000 496660.313000 -3.346000 0
154246.859000 496660.594000 -3.386000 0
154246.938000 496660.938000 -3.363000 0
154247.016000 496661.281000 -3.416000 0
154247.094000 496661.594000 -3.425000 0
154247.172000 496661.906000 -3.352000 0
154247.266000 496662.250000 -3.299000 0
154247.344000 496662.594000 -3.362000 0
154247.438000 496662.938000 -3.386000 0
154247.438000 496662.969000 -1.727000 0
154247.516000 496663.281000 -3.397000 0
154247.609000 496663.625000 -3.461000 0
154247.688000 496663.938000 -3.398000 0
154247.766000 496664.281000 -3.420000 0
154247.859000 496664.625000 -3.418000 0
154247.922000 496664.906000 -3.382000 0
154248.016000 496665.250000 -3.429000 0
154248.094000 496665.563000 -3.440000 0
154248.172000 496665.875000 -3.425000 0
154248.250000 496666.219000 -3.489000 0
154248.344000 496666.563000 -3.517000 0
154248.406000 496666.875000 -3.443000 0
154248.500000 496667.219000 -3.533000 0
154248.578000 496667.531000 -3.511000 0
154248.672000 496667.906000 -3.498000 0
154248.750000 496668.219000 -3.530000 0
154248.828000 496668.563000 -3.519000 0
154248.922000 496668.875000 -3.556000 0
154249.000000 496669.219000 -3.533000 0
154249.078000 496669.563000 -3.523000 0
154249.156000 496669.875000 -3.290000 0
154249.250000 496670.219000 -3.478000 0
154249.344000 496670.563000 -3.449000 0
154249.422000 496670.906000 -3.404000 0
154249.406000 496670.844000 -1.627000 0
154249.500000 496671.219000 -3.463000 0
154249.578000 496671.531000 -3.471000 0
154249.672000 496671.906000 -3.559000 0
154249.750000 496672.250000 -3.605000 0
154249.828000 496672.563000 -3.602000 0
154249.922000 496672.906000 -3.600000 0
154249.906000 496672.844000 -1.446000 0
154250.000000 496673.250000 -3.540000 0
154250.078000 496673.531000 -3.432000 0
154250.156000 496673.844000 -3.356000 0
154250.250000 496674.219000 -3.382000 0
154250.250000 496674.250000 -1.975000 0
154250.328000 496674.531000 -3.447000 0
154250.313000 496674.469000 -1.332000 0
154250.406000 496674.875000 -3.492000 0
154250.484000 496675.188000 -3.324000 0
154250.563000 496675.500000 -3.330000 0
154250.641000 496675.813000 -3.417000 0
154250.688000 496675.969000 -2.440000 0
154250.734000 496676.156000 -3.357000 0
154250.813000 496676.500000 -3.410000 0
154250.891000 496676.813000 -3.357000 0
154250.969000 496677.125000 -3.342000 0
154251.063000 496677.500000 -3.512000 0
154251.141000 496677.813000 -3.520000 0
154251.234000 496678.188000 -3.567000 0
154251.313000 496678.500000 -3.467000 0
154251.391000 496678.813000 -3.520000 0
154251.391000 496678.813000 -1.722000 0
154251.484000 496679.156000 -3.507000 0
154251.563000 496679.500000 -3.542000 0
154251.578000 496679.563000 -2.006000 0
154251.656000 496679.844000 -3.530000 0
154251.719000 496680.156000 -3.354000 0
154251.828000 496680.531000 -3.497000 0
154251.906000 496680.875000 -3.453000 0
154251.984000 496681.156000 -3.477000 0
154252.063000 496681.500000 -3.466000 0
154252.156000 496681.844000 -3.437000 0
154252.234000 496682.156000 -3.433000 0
154252.234000 496682.188000 -1.833000 1
154252.313000 496682.500000 -3.413000 0
154252.406000 496682.844000 -3.468000 0
154252.375000 496682.781000 -1.515000 1
154252.469000 496683.156000 -3.390000 0
154252.563000 496683.500000 -3.347000 0
154252.656000 496683.875000 -3.447000 0
154252.656000 496683.875000 -1.938000 0
154252.734000 496684.188000 -3.447000 0
154252.719000 496684.156000 -1.704000 0
154252.813000 496684.531000 -3.467000 0
154252.891000 496684.844000 -3.397000 0
154252.906000 496684.906000 -2.019000 0
154252.984000 496685.188000 -3.513000 0
154253.063000 496685.500000 -3.490000 0
154253.141000 496685.844000 -3.464000 0
154253.234000 496686.188000 -3.471000 0
154253.297000 496686.438000 -3.383000 0
154253.391000 496686.781000 -3.297000 0
154253.469000 496687.156000 -3.474000 0
154253.547000 496687.469000 -3.430000 0
154253.641000 496687.813000 -3.406000 0
154253.719000 496688.125000 -3.410000 0
154253.797000 496688.469000 -3.393000 0
154253.813000 496688.500000 -1.986000 1
154253.875000 496688.781000 -3.341000 0
154253.969000 496689.125000 -3.310000 0
154254.063000 496689.469000 -3.470000 0
154254.063000 496689.531000 -2.105000 0
154254.141000 496689.813000 -3.454000 0
154254.172000 496689.938000 -2.362000 0
154254.219000 496690.156000 -3.441000 0
154254.313000 496690.531000 -3.481000 0
154254.391000 496690.844000 -3.468000 0
154254.484000 496691.219000 -3.502000 0
154254.578000 496691.563000 -3.557000 0
154254.641000 496691.813000 -3.467000 0
154254.719000 496692.125000 -3.380000 0
154254.813000 496692.531000 -3.457000 0
154254.891000 496692.844000 -3.432000 0
154254.969000 496693.156000 -3.425000 0
154254.891000 496692.844000 -0.132000 0
154255.063000 496693.531000 -3.460000 0
154255.141000 496693.844000 -3.430000 0
154255.234000 496694.188000 -3.401000 0
154255.313000 496694.531000 -3.420000 0
154255.313000 496694.531000 -1.701000 0
154255.391000 496694.844000 -3.295000 0
154255.469000 496695.156000 -3.383000 0
154255.563000 496695.531000 -3.491000 0
154255.563000 496695.500000 -1.725000 0
154255.641000 496695.844000 -3.369000 0
154255.609000 496695.719000 -1.290000 0
154255.719000 496696.188000 -3.441000 0
154255.813000 496696.500000 -3.465000 0
154255.891000 496696.844000 -3.461000 0
154255.969000 496697.188000 -3.458000 0
154256.063000 496697.500000 -3.522000 0
154256.031000 496697.438000 -1.579000 0
154256.141000 496697.844000 -3.517000 0
154256.234000 496698.188000 -3.568000 0
154256.156000 496697.906000 -0.667000 1
154256.313000 496698.500000 -3.583000 0
154256.234000 496698.188000 -0.443000 1
154256.391000 496698.875000 -3.609000 0
154256.297000 496698.469000 -0.086000 1
154256.484000 496699.219000 -3.548000 0
154256.359000 496698.750000 0.026000 1
154256.563000 496699.531000 -3.573000 0
154256.438000 496699.031000 0.218000 1
154256.641000 496699.844000 -3.521000 0
154256.516000 496699.375000 0.341000 1
154256.656000 496699.906000 0.982000 1
154244.688000 496650.531000 -3.210000 0
154244.797000 496650.906000 -3.426000 0
154244.875000 496651.250000 -3.491000 0
154244.953000 496651.594000 -3.462000 0
154244.906000 496651.375000 -0.446000 0
154245.031000 496651.906000 -3.369000 0
154245.125000 496652.250000 -3.469000 0
154245.203000 496652.563000 -3.469000 0
154245.219000 496652.656000 -1.983000 0
154245.281000 496652.906000 -3.427000 0
154245.281000 496652.906000 -1.672000 0
154245.359000 496653.219000 -3.432000 0
154245.453000 496653.563000 -3.465000 0
154245.531000 496653.875000 -3.394000 0
154245.594000 496654.156000 -3.343000 0
154245.672000 496654.469000 -3.222000 0
154245.766000 496654.844000 -3.446000 0
154245.844000 496655.156000 -3.392000 0
154245.922000 496655.469000 -3.393000 0
154246.016000 496655.813000 -3.427000 0
154246.000000 496655.781000 -1.358000 0
154246.094000 496656.156000 -3.422000 0
154246.172000 496656.469000 -3.387000 0
154246.250000 496656.781000 -3.272000 0
154246.281000 496656.875000 -1.937000 1
154246.344000 496657.156000 -3.410000 0
154246.344000 496657.156000 -1.493000 1
154246.422000 496657.469000 -3.253000 0
154246.516000 496657.813000 -3.351000 0
154246.594000 496658.156000 -3.402000 0
154246.672000 496658.469000 -3.413000 0
154246.766000 496658.844000 -3.434000 0
154246.766000 496658.844000 -1.745000 1
154246.844000 496659.156000 -3.447000 0
154246.828000 496659.125000 -1.487000 1
154246.922000 496659.500000 -3.512000 0
154246.906000 496659.406000 -1.288000 0
154247.000000 496659.781000 -3.448000 0
154247.094000 496660.156000 -3.443000 0
154247.172000 496660.438000 -3.256000 0
154247.250000 496660.781000 -3.357000 0
154247.344000 496661.156000 -3.457000 0
154247.344000 496661.188000 -1.751000 0
154247.422000 496661.469000 -3.400000 0
154247.516000 496661.813000 -3.482000 0
154247.594000 496662.156000 -3.466000 0
154247.688000 496662.500000 -3.461000 0
154247.750000 496662.781000 -3.404000 0
154247.750000 496662.781000 -1.365000 0
154247.844000 496663.156000 -3.392000 0
154247.781000 496662.906000 -0.351000 0
154247.922000 496663.438000 -3.298000 0
154248.000000 496663.781000 -3.500000 0
154248.016000 496663.813000 -1.915000 0
154248.078000 496664.094000 -3.392000 0
154248.172000 496664.438000 -3.452000 0
154248.250000 496664.750000 -3.389000 0
154248.313000 496665.063000 -3.308000 0
154248.406000 496665.375000 -3.288000 0
154248.406000 496665.438000 -1.708000 0
154248.484000 496665.750000 -3.351000 0
154248.563000 496666.031000 -3.326000 0
154248.656000 496666.438000 -3.493000 0
154248.641000 496666.313000 -1.088000 0
154248.750000 496666.781000 -3.464000 0
154248.828000 496667.063000 -3.505000 0
154248.906000 496667.406000 -3.508000 0
154249.000000 496667.750000 -3.536000 0
154249.078000 496668.094000 -3.496000 0
154249.156000 496668.438000 -3.511000 0
154249.156000 496668.406000 -1.520000 0
154249.250000 496668.781000 -3.511000 0
154249.344000 496669.125000 -3.602000 0
154249.406000 496669.438000 -3.569000 0
154249.500000 496669.781000 -3.535000 0
154249.469000 496669.656000 -1.330000 0
154249.578000 496670.063000 -3.466000 0
154249.656000 496670.406000 -3.473000 0
154249.734000 496670.750000 -3.442000 0
154249.750000 496670.813000 -2.063000 0
154249.828000 496671.094000 -3.508000 0
154249.906000 496671.406000 -3.504000 0
154250.000000 496671.781000 -3.532000 0
154250.078000 496672.125000 -3.531000 0
154250.156000 496672.438000 -3.579000 0
154250.250000 496672.781000 -3.619000 0
154250.328000 496673.125000 -3.563000 0
154250.406000 496673.406000 -3.414000 0
154250.484000 496673.719000 -3.332000 0
154250.563000 496674.063000 -3.401000 0
154250.656000 496674.406000 -3.514000 0
154250.719000 496674.688000 -3.385000 0
154250.813000 496675.063000 -3.509000 0
154250.891000 496675.375000 -3.407000 0
154250.875000 496675.313000 -1.538000 0
154250.969000 496675.688000 -3.467000 0
154251.063000 496676.031000 -3.435000 0
154251.063000 496676.063000 -1.811000 0
154251.141000 496676.375000 -3.448000 0
154251.219000 496676.688000 -3.456000 0
154251.297000 496677.000000 -3.284000 0
154251.313000 496677.031000 -1.782000 0
154251.391000 496677.344000 -3.337000 0
154251.359000 496677.281000 -1.339000 0
154251.469000 496677.656000 -3.306000 0
154251.469000 496677.688000 -1.737000 0
154251.563000 496678.031000 -3.576000 0
154251.641000 496678.375000 -3.392000 0
154251.734000 496678.719000 -3.475000 0
154251.813000 496679.031000 -3.457000 0
154251.906000 496679.406000 -3.534000 0
154251.906000 496679.469000 -2.148000 1
154251.984000 496679.719000 -3.479000 0
154251.969000 496679.688000 -1.730000 0
154252.063000 496680.031000 -3.487000 0
154252.141000 496680.344000 -3.391000 0
154252.219000 496680.688000 -3.362000 0
154252.313000 496681.031000 -3.503000 0
154252.391000 496681.344000 -3.415000 0
154252.469000 496681.656000 -3.178000 0
154252.563000 496682.031000 -3.403000 0
154252.563000 496682.063000 -1.789000 0
154252.641000 496682.406000 -3.467000 0
154252.719000 496682.719000 -3.430000 0
154252.813000 496683.063000 -3.422000 0
154252.891000 496683.375000 -3.447000 0
154252.969000 496683.719000 -3.327000 0
154253.063000 496684.063000 -3.477000 0
154253.141000 496684.344000 -3.456000 0
154253.219000 496684.688000 -3.416000 0
154253.297000 496685.031000 -3.403000 0
154253.375000 496685.344000 -3.431000 0
154253.469000 496685.688000 -3.439000 0
154253.547000 496686.031000 -3.496000 0
154253.625000 496686.344000 -3.400000 0
154253.703000 496686.656000 -3.458000 0
154253.797000 496687.000000 -3.388000 0
154253.891000 496687.375000 -3.517000 0
154253.969000 496687.656000 -3.435000 0
154254.047000 496688.000000 -3.442000 0
154254.125000 496688.344000 -3.346000 0
154254.203000 496688.656000 -3.361000 0
154254.281000 496689.000000 -3.186000 0
154254.391000 496689.375000 -3.420000 0
154254.469000 496689.719000 -3.411000 0
154254.563000 496690.063000 -3.473000 0
154254.641000 496690.375000 -3.495000 0
154254.719000 496690.719000 -3.494000 0
154254.797000 496691.031000 -3.451000 0
154254.891000 496691.406000 -3.520000 0
154254.969000 496691.719000 -3.502000 0
154255.047000 496692.031000 -3.455000 0
154255.141000 496692.406000 -3.405000 0
154255.234000 496692.750000 -3.462000 0
154255.297000 496693.063000 -3.397000 0
154255.313000 496693.094000 -1.887000 0
154255.391000 496693.406000 -3.449000 0
154255.469000 496693.750000 -3.438000 0
154255.547000 496694.031000 -3.357000 0
154255.531000 496693.938000 -1.287000 0
154255.641000 496694.406000 -3.438000 0
154255.719000 496694.719000 -3.375000 0
154255.703000 496694.656000 -1.683000 0
154255.797000 496695.031000 -3.430000 0
154255.875000 496695.344000 -3.418000 0
154255.969000 496695.719000 -3.393000 0
154256.047000 496696.031000 -3.410000 0
154256.125000 496696.344000 -3.353000 0
154256.141000 496696.406000 -2.056000 0
154256.219000 496696.719000 -3.465000 0
154256.297000 496697.031000 -3.482000 0
154256.391000 496697.375000 -3.503000 0
154256.344000 496697.250000 -1.262000 1
154256.469000 496697.750000 -3.542000 0
154256.422000 496697.531000 -0.961000 1
154256.563000 496698.094000 -3.597000 0
154256.469000 496697.750000 -0.625000 1
154256.641000 496698.375000 -3.598000 0
154256.563000 496698.094000 -0.595000 1
154256.625000 496698.375000 -1.906000 0
154256.719000 496698.750000 -3.588000 0
154256.625000 496698.344000 -0.040000 1
154256.813000 496699.094000 -3.594000 0
154256.703000 496698.656000 0.049000 1
154256.891000 496699.438000 -3.576000 0
154256.766000 496698.938000 0.381000 1
154256.984000 496699.750000 -3.533000 0
154256.859000 496699.313000 0.215000 1
154256.922000 496699.594000 0.463000 1
154256.984000 496699.813000 0.917000 1
154245.016000 496650.063000 -3.501000 0
154245.094000 496650.406000 -3.486000 0
154245.172000 496650.719000 -3.359000 0
154245.250000 496651.031000 -3.472000 0
154245.344000 496651.375000 -3.431000 0
154245.422000 496651.688000 -3.364000 0
154245.500000 496652.000000 -3.422000 0
154245.578000 496652.313000 -3.467000 0
154245.594000 496652.375000 -1.763000 0
154245.656000 496652.656000 -3.365000 0
154245.641000 496652.594000 -1.271000 0
154245.734000 496652.969000 -3.365000 0
154245.813000 496653.281000 -3.316000 0
154245.906000 496653.656000 -3.392000 0
154245.984000 496653.969000 -3.465000 0
154246.063000 496654.281000 -3.443000 0
154246.156000 496654.656000 -3.499000 0
154246.141000 496654.594000 -1.435000 0
154246.234000 496654.969000 -3.388000 0
154246.313000 496655.250000 -3.378000 0
154246.391000 496655.594000 -3.364000 0
154246.484000 496655.969000 -3.389000 0
154246.563000 496656.281000 -3.384000 0
154246.578000 496656.375000 -1.898000 1
154246.656000 496656.625000 -3.389000 0
154246.750000 496657.000000 -3.484000 0
154246.813000 496657.313000 -3.431000 0
154246.813000 496657.281000 -1.588000 1
154246.891000 496657.625000 -3.434000 0
154246.984000 496657.969000 -3.479000 0
154246.984000 496658.000000 -1.831000 0
154247.063000 496658.281000 -3.480000 0
154247.141000 496658.625000 -3.462000 0
154247.172000 496658.719000 -2.171000 0
154247.219000 496658.938000 -3.357000 0
154247.203000 496658.875000 -1.167000 0
154247.313000 496659.281000 -3.433000 0
154247.391000 496659.625000 -3.433000 0
154247.484000 496659.969000 -3.414000 0
154247.563000 496660.281000 -3.345000 0
154247.563000 496660.281000 -1.587000 0
154247.641000 496660.625000 -3.405000 0
154247.609000 496660.531000 -1.128000 0
154247.719000 496660.938000 -3.424000 0
154247.750000 496661.031000 -1.938000 0
154247.813000 496661.313000 -3.401000 0
154247.891000 496661.594000 -3.438000 0
154247.969000 496661.938000 -3.466000 0
154248.047000 496662.250000 -3.412000 0
154248.125000 496662.563000 -3.428000 0
154248.219000 496662.875000 -3.388000 0
154248.297000 496663.219000 -3.377000 0
154248.375000 496663.531000 -3.272000 0
154248.453000 496663.875000 -3.416000 0
154248.531000 496664.188000 -3.401000 0
154248.531000 496664.219000 -1.552000 0
154248.625000 496664.563000 -3.402000 0
154248.703000 496664.844000 -3.273000 0
154248.781000 496665.188000 -3.343000 0
154248.875000 496665.531000 -3.391000 0
154248.953000 496665.875000 -3.512000 0
154249.047000 496666.219000 -3.469000 0
154249.125000 496666.563000 -3.524000 0
154249.219000 496666.906000 -3.524000 0
154249.297000 496667.219000 -3.478000 0
154249.375000 496667.563000 -3.460000 0
154249.453000 496667.875000 -3.483000 0
154249.391000 496667.656000 -0.643000 0
154249.531000 496668.188000 -3.506000 0
154249.625000 496668.531000 -3.401000 0
154249.719000 496668.906000 -3.553000 0
154249.719000 496668.906000 -2.032000 0
154249.781000 496669.219000 -3.603000 0
154249.875000 496669.563000 -3.520000 0
154249.969000 496669.906000 -3.566000 0
154250.031000 496670.219000 -3.429000 0
154250.125000 496670.531000 -3.427000 0
154250.219000 496670.906000 -3.494000 0
154250.281000 496671.188000 -3.409000 0
154250.375000 496671.531000 -3.373000 0
154250.453000 496671.875000 -3.418000 0
154250.531000 496672.188000 -3.480000 0
154250.609000 496672.500000 -3.534000 0
154250.609000 496672.469000 -1.574000 0
154250.703000 496672.875000 -3.598000 0
154250.781000 496673.188000 -3.508000 0
154250.750000 496673.094000 -1.371000 0
154250.859000 496673.469000 -3.416000 0
154250.938000 496673.813000 -3.477000 0
154251.031000 496674.188000 -3.463000 0
154251.109000 496674.469000 -3.448000 0
154251.188000 496674.813000 -3.437000 0
154251.281000 496675.188000 -3.450000 0
154251.359000 496675.469000 -3.350000 0
154251.328000 496675.406000 -1.490000 0
154251.438000 496675.813000 -3.509000 0
154251.531000 496676.156000 -3.450000 0
154251.500000 496676.094000 -1.371000 0
154251.609000 496676.500000 -3.365000 0
154251.609000 496676.500000 -1.834000 0
154251.688000 496676.813000 -3.464000 0
154251.781000 496677.188000 -3.445000 0
154251.859000 496677.531000 -3.413000 0
154251.953000 496677.875000 -3.570000 0
154252.031000 496678.188000 -3.514000 0
154252.094000 496678.469000 -3.352000 0
154252.188000 496678.813000 -3.441000 0
154252.219000 496678.969000 -2.389000 1
154252.281000 496679.188000 -3.546000 0
154252.281000 496679.219000 -1.998000 1
154252.359000 496679.500000 -3.439000 0
154252.453000 496679.844000 -3.555000 0
154252.531000 496680.188000 -3.452000 0
154252.609000 496680.531000 -3.452000 0
154252.688000 496680.844000 -3.474000 0
154252.688000 496680.844000 -1.708000 0
154252.781000 496681.156000 -3.415000 0
154252.859000 496681.500000 -3.365000 0
154252.938000 496681.844000 -3.402000 0
154253.016000 496682.156000 -3.410000 0
154253.016000 496682.188000 -1.840000 0
154253.109000 496682.500000 -3.388000 0
154253.188000 496682.813000 -3.406000 0
154253.266000 496683.125000 -3.439000 0
154253.344000 496683.469000 -3.526000 0
154253.438000 496683.813000 -3.426000 0
154253.516000 496684.125000 -3.413000 0
154253.594000 496684.438000 -3.387000 0
154253.672000 496684.781000 -3.363000 0
154253.766000 496685.125000 -3.433000 0
154253.844000 496685.469000 -3.500000 0
154253.938000 496685.813000 -3.489000 0
154254.016000 496686.125000 -3.420000 0
154254.094000 496686.438000 -3.437000 0
154254.172000 496686.781000 -3.421000 0
154254.266000 496687.156000 -3.388000 0
154254.344000 496687.469000 -3.452000 0
154254.438000 496687.813000 -3.443000 0
154254.516000 496688.125000 -3.294000 0
154254.594000 496688.438000 -3.276000 0
154254.672000 496688.781000 -3.344000 0
154254.688000 496688.813000 -1.822000 0
154254.766000 496689.125000 -3.348000 0
154254.844000 496689.469000 -3.320000 0
154254.922000 496689.781000 -3.416000 0
154255.016000 496690.156000 -3.461000 0
154255.109000 496690.500000 -3.462000 0
154255.188000 496690.813000 -3.403000 0
154255.359000 496691.531000 -3.498000 0
154255.438000 496691.844000 -3.539000 0
154255.516000 496692.156000 -3.461000 0
154255.609000 496692.500000 -3.436000 0
154255.672000 496692.813000 -3.362000 0
154255.750000 496693.125000 -3.359000 0
154255.844000 496693.469000 -3.331000 0
154255.922000 496693.813000 -3.366000 0
154256.016000 496694.156000 -3.534000 0
154256.094000 496694.469000 -3.450000 0
154256.188000 496694.813000 -3.477000 0
154256.250000 496695.125000 -3.511000 0
154256.344000 496695.469000 -3.412000 0
154256.438000 496695.844000 -3.446000 0
154256.406000 496695.750000 -1.549000 1
154256.500000 496696.125000 -3.425000 0
154256.594000 496696.469000 -3.493000 0
154256.688000 496696.844000 -3.489000 0
154256.766000 496697.156000 -3.518000 0
154256.734000 496697.063000 -1.529000 1
154256.844000 496697.500000 -3.560000 0
154256.813000 496697.344000 -1.074000 1
154256.953000 496697.906000 -3.615000 0
154257.031000 496698.219000 -3.632000 0
154256.891000 496697.688000 0.322000 1
154256.953000 496697.938000 -0.763000 1
154257.109000 496698.531000 -3.588000 0
154257.188000 496698.875000 -3.593000 0
154257.078000 496698.406000 0.173000 1
154257.266000 496699.188000 -3.521000 0
154257.156000 496698.719000 0.168000 1
154257.359000 496699.531000 -3.514000 0
154257.234000 496699.063000 0.214000 1
154257.438000 496699.844000 -3.475000 0
154257.313000 496699.375000 0.328000 1
154257.375000 496699.625000 0.665000 1
154245.453000 496650.094000 -3.424000 0
154245.547000 496650.438000 -3.424000 0
154245.547000 496650.469000 -1.892000 0
154245.625000 496650.750000 -3.447000 0
154245.703000 496651.031000 -3.284000 0
154245.797000 496651.406000 -3.493000 0
154245.875000 496651.750000 -3.540000 0
154245.953000 496652.031000 -3.435000 0
154245.938000 496652.000000 -1.378000 0
154246.031000 496652.344000 -3.386000 0
154246.109000 496652.688000 -3.337000 0
154246.203000 496653.031000 -3.434000 0
154246.219000 496653.094000 -1.945000 0
154246.281000 496653.344000 -3.456000 0
154246.359000 496653.688000 -3.332000 0
154246.453000 496654.031000 -3.447000 0
154246.531000 496654.344000 -3.402000 0
154246.531000 496654.375000 -1.486000 0
154246.625000 496654.719000 -3.461000 0
154246.703000 496655.031000 -3.418000 0
154246.781000 496655.375000 -3.416000 0
154246.859000 496655.688000 -3.386000 0
154246.953000 496656.031000 -3.457000 0
154246.953000 496656.094000 -2.059000 0
154247.016000 496656.344000 -3.480000 0
154247.031000 496656.375000 -1.736000 0
154247.109000 496656.688000 -3.503000 0
154247.188000 496657.031000 -3.350000 0
154247.266000 496657.313000 -3.361000 0
154247.359000 496657.656000 -3.436000 0
154247.453000 496658.063000 -3.457000 0
154247.516000 496658.344000 -3.380000 0
154247.609000 496658.688000 -3.444000 0
154247.688000 496659.031000 -3.447000 0
154247.766000 496659.344000 -3.406000 0
154247.781000 496659.406000 -1.934000 0
154247.859000 496659.656000 -3.399000 0
154247.938000 496660.000000 -3.358000 0
154247.969000 496660.125000 -2.285000 0
154248.016000 496660.344000 -3.504000 0
154248.094000 496660.625000 -3.438000 0
154248.172000 496660.969000 -3.421000 0
154248.266000 496661.313000 -3.345000 0
154248.344000 496661.594000 -3.361000 0
154248.406000 496661.906000 -3.347000 0
154248.516000 496662.313000 -3.460000 0
154248.500000 496662.250000 -1.546000 0
154248.594000 496662.625000 -3.458000 0
154248.578000 496662.563000 -1.472000 0
154248.672000 496662.938000 -3.399000 0
154248.766000 496663.281000 -3.414000 0
154248.844000 496663.594000 -3.398000 0
154248.906000 496663.906000 -3.436000 0
154249.000000 496664.250000 -3.424000 0
154249.000000 496664.250000 -1.516000 0
154249.078000 496664.594000 -3.326000 0
154249.172000 496664.938000 -3.358000 0
154249.250000 496665.281000 -3.453000 0
154249.266000 496665.313000 -1.675000 0
154249.344000 496665.625000 -3.452000 0
154249.313000 496665.531000 -1.339000 0
154249.422000 496665.938000 -3.374000 0
154249.500000 496666.250000 -3.372000 0
154249.594000 496666.625000 -3.522000 0
154249.672000 496666.938000 -3.532000 0
154249.750000 496667.250000 -3.448000 0
154249.828000 496667.594000 -3.443000 0
154249.922000 496667.938000 -3.459000 0
154250.000000 496668.250000 -3.376000 0
154250.078000 496668.594000 -3.393000 0
154250.172000 496668.969000 -3.532000 0
154250.250000 496669.281000 -3.596000 0
154250.250000 496669.281000 -1.711000 0
154250.344000 496669.625000 -3.577000 0
154250.344000 496669.656000 -1.973000 0
154250.422000 496669.969000 -3.568000 0
154250.500000 496670.281000 -3.596000 0
154250.578000 496670.594000 -3.568000 0
154250.656000 496670.906000 -3.468000 0
154250.734000 496671.219000 -3.470000 0
154250.813000 496671.531000 -3.393000 0
154250.906000 496671.875000 -3.354000 0
154250.984000 496672.219000 -3.477000 0
154251.063000 496672.563000 -3.572000 0
154251.063000 496672.500000 -1.586000 0
154251.156000 496672.906000 -3.602000 0
154251.234000 496673.250000 -3.544000 0
154251.313000 496673.531000 -3.492000 0
154251.391000 496673.875000 -3.447000 0
154251.484000 496674.219000 -3.450000 0
154251.563000 496674.531000 -3.457000 0
154251.641000 496674.844000 -3.410000 0
154251.734000 496675.219000 -3.361000 0
154251.813000 496675.531000 -3.329000 0
154251.891000 496675.875000 -3.350000 0
154251.984000 496676.219000 -3.376000 0
154252.063000 496676.531000 -3.389000 0
154252.063000 496676.531000 -1.845000 0
154252.141000 496676.844000 -3.354000 0
154252.234000 496677.219000 -3.493000 0
154252.328000 496677.563000 -3.515000 0
154252.406000 496677.906000 -3.573000 0
154252.484000 496678.219000 -3.509000 0
154252.578000 496678.594000 -3.576000 0
154252.656000 496678.906000 -3.507000 0
154252.656000 496678.938000 -2.002000 0
154252.734000 496679.219000 -3.466000 0
154252.750000 496679.281000 -1.846000 1
154252.828000 496679.594000 -3.428000 0
154252.891000 496679.875000 -3.429000 0
154252.984000 496680.219000 -3.477000 0
154253.063000 496680.563000 -3.459000 0
154253.141000 496680.875000 -3.410000 0
154253.219000 496681.188000 -3.426000 0
154253.297000 496681.500000 -3.334000 0
154253.391000 496681.875000 -3.489000 0
154253.469000 496682.188000 -3.470000 0
154253.547000 496682.469000 -3.335000 0
154253.641000 496682.844000 -3.314000 0
154253.719000 496683.156000 -3.393000 0
154253.734000 496683.219000 -1.996000 0
154253.797000 496683.500000 -3.464000 0
154253.797000 496683.469000 -1.520000 0
154253.891000 496683.875000 -3.423000 0
154253.969000 496684.188000 -3.456000 0
154253.969000 496684.156000 -1.764000 0
154254.047000 496684.500000 -3.450000 0
154254.141000 496684.844000 -3.358000 0
154254.219000 496685.188000 -3.495000 0
154254.297000 496685.500000 -3.448000 0
154254.297000 496685.469000 -1.440000 0
154254.391000 496685.875000 -3.473000 0
154254.375000 496685.813000 -1.365000 0
154254.484000 496686.219000 -3.453000 0
154254.563000 496686.531000 -3.434000 0
154254.641000 496686.844000 -3.352000 0
154254.719000 496687.219000 -3.470000 0
154254.797000 496687.500000 -3.433000 0
154254.891000 496687.844000 -3.396000 0
154254.969000 496688.188000 -3.412000 0
154254.953000 496688.125000 -1.402000 0
154255.063000 496688.531000 -3.469000 0
154255.063000 496688.594000 -2.026000 0
154255.141000 496688.844000 -3.347000 0
154255.234000 496689.219000 -3.388000 0
154255.391000 496689.875000 -3.388000 0
154255.406000 496689.938000 -2.068000 0
154255.469000 496690.188000 -3.353000 0
154255.469000 496690.188000 -1.616000 0
154255.563000 496690.563000 -3.478000 0
154255.641000 496690.844000 -3.432000 0
154255.719000 496691.219000 -3.514000 0
154255.813000 496691.531000 -3.456000 0
154255.875000 496691.844000 -3.474000 0
154255.969000 496692.219000 -3.533000 0
