155918.641000 496940.406000 -3.389000 0
155918.563000 496940.125000 -3.206000 1
155918.703000 496940.625000 -1.170000 1
155918.453000 496939.688000 -3.295000 1
155918.938000 496941.500000 1.651000 0
155918.328000 496939.219000 -3.461000 0
155918.797000 496941.000000 1.358000 0
155918.531000 496939.938000 -0.964000 1
155918.234000 496938.875000 -3.363000 1
155918.672000 496940.500000 1.169000 1
155918.375000 496939.344000 -1.366000 1
155918.125000 496938.406000 -3.468000 0
155918.141000 496938.500000 -2.416000 1
155918.594000 496940.219000 2.204000 1
155918.047000 496938.125000 -2.455000 1
155918.688000 496940.563000 3.805000 0
155917.984000 496937.875000 -2.141000 1
155918.359000 496939.281000 1.944000 1
155918.141000 496938.500000 0.163000 0
155918.219000 496938.719000 1.499000 1
155917.609000 496936.469000 -3.513000 0
155917.531000 496936.125000 -3.520000 0
155917.438000 496935.781000 -3.389000 0
155918.078000 496938.219000 2.831000 1
155917.328000 496935.375000 -3.505000 0
155917.984000 496937.844000 2.820000 1
155917.422000 496935.688000 -1.917000 0
155917.234000 496935.000000 -3.429000 0
155917.828000 496937.281000 2.449000 0
155917.641000 496936.563000 0.888000 1
155917.125000 496934.594000 -3.454000 0
155917.766000 496937.000000 2.728000 0
155917.578000 496936.281000 1.124000 1
155917.016000 496934.188000 -3.498000 0
155917.406000 496935.625000 0.461000 0
155916.922000 496933.813000 -3.512000 0
155917.375000 496935.500000 1.049000 0
155917.141000 496934.625000 -0.851000 0
155916.828000 496933.469000 -3.462000 0
155916.719000 496933.063000 -3.443000 0
155916.625000 496932.688000 -3.424000 0
155916.516000 496932.281000 -3.475000 0
155916.422000 496931.906000 -3.418000 0
155916.313000 496931.500000 -3.482000 0
155916.219000 496931.125000 -3.430000 0
155916.141000 496930.813000 -3.205000 0
155916.016000 496930.344000 -3.358000 0
155915.906000 496929.938000 -3.417000 0
155915.813000 496929.531000 -3.441000 0
155915.719000 496929.219000 -3.342000 0
155915.625000 496928.844000 -3.366000 0
155915.516000 496928.438000 -3.324000 0
155915.391000 496927.969000 -3.471000 0
155915.297000 496927.563000 -3.562000 0
155920.719000 496949.781000 -3.590000 0
155920.625000 496949.438000 -3.506000 0
155920.547000 496949.094000 -3.341000 0
155920.438000 496948.688000 -3.503000 0
155920.328000 496948.313000 -3.490000 0
155920.234000 496947.906000 -3.457000 0
155920.141000 496947.594000 -3.427000 0
155920.047000 496947.188000 -3.415000 0
155919.938000 496946.781000 -3.421000 0
155919.844000 496946.406000 -3.430000 0
155919.750000 496946.063000 -3.381000 0
155919.656000 496945.719000 -3.207000 0
155919.547000 496945.313000 -3.328000 0
155919.438000 496944.875000 -3.394000 0
155919.328000 496944.406000 -3.494000 0
155919.219000 496944.031000 -3.513000 0
155919.109000 496943.625000 -3.547000 0
155919.016000 496943.250000 -3.523000 0
155918.922000 496942.875000 -3.522000 0
155918.828000 496942.531000 -3.496000 0
155918.719000 496942.094000 -3.532000 0
155918.625000 496941.750000 -3.475000 0
155918.516000 496941.313000 -3.540000 0
155918.406000 496940.906000 -3.579000 0
155918.328000 496940.594000 -3.379000 0
155918.219000 496940.188000 -3.459000 0
155918.422000 496940.938000 -0.908000 1
155918.109000 496939.781000 -3.532000 0
155918.313000 496940.531000 -0.959000 1
155918.016000 496939.375000 -3.514000 0
155918.203000 496940.125000 -1.028000 1
155917.906000 496939.000000 -3.509000 0
155918.078000 496939.625000 -1.267000 1
155917.813000 496938.656000 -3.477000 0
155918.313000 496940.500000 1.509000 1
155917.719000 496938.281000 -3.412000 0
155918.328000 496940.563000 2.438000 1
155917.797000 496938.563000 -1.986000 1
155918.125000 496939.813000 1.623000 1
155917.719000 496938.219000 -1.916000 1
155917.531000 496937.531000 -3.482000 0
155918.078000 496939.625000 2.084000 1
155917.906000 496938.969000 0.634000 1
155917.609000 496937.813000 -1.935000 1
155917.406000 496937.094000 -3.566000 0
155917.781000 496938.469000 0.384000 0
155917.547000 496937.594000 -1.587000 1
155917.906000 496938.969000 2.300000 1
155917.484000 496937.375000 -1.269000 1
155917.219000 496936.375000 -3.513000 0
155917.391000 496937.000000 -1.174000 1
155917.141000 496936.031000 -3.351000 0
155917.016000 496935.594000 -3.477000 0
155916.922000 496935.188000 -3.514000 0
155917.359000 496936.844000 1.032000 1
155917.141000 496936.031000 -0.757000 0
155916.813000 496934.781000 -3.516000 0
155917.297000 496936.625000 1.404000 1
155917.141000 496936.031000 0.067000 0
155916.703000 496934.375000 -3.533000 0
155917.109000 496935.938000 0.666000 1
155916.625000 496934.063000 -3.461000 0
155916.516000 496933.656000 -3.477000 0
155916.406000 496933.250000 -3.448000 0
155916.313000 496932.875000 -3.390000 0
155916.219000 496932.500000 -3.423000 0
155916.109000 496932.094000 -3.418000 0
155916.016000 496931.688000 -3.391000 0
155915.828000 496931.031000 -3.259000 0
155915.609000 496930.156000 -3.441000 0
155915.484000 496929.719000 -3.571000 0
155915.406000 496929.406000 -3.284000 0
155915.313000 496929.031000 -3.311000 0
155915.188000 496928.563000 -3.486000 0
155915.281000 496928.938000 -1.794000 0
155915.078000 496928.156000 -3.473000 0
155914.984000 496927.750000 -3.505000 0
155914.875000 496927.375000 -3.541000 0
155920.281000 496949.750000 -3.560000 0
155920.188000 496949.375000 -3.526000 0
155920.078000 496948.969000 -3.548000 0
155919.969000 496948.594000 -3.473000 0
155919.875000 496948.219000 -3.488000 0
155919.797000 496947.875000 -3.442000 0
155919.688000 496947.500000 -3.407000 0
155919.594000 496947.094000 -3.363000 0
155919.484000 496946.688000 -3.465000 0
155919.391000 496946.313000 -3.433000 0
155919.281000 496945.938000 -3.393000 0
155919.188000 496945.563000 -3.375000 0
155919.109000 496945.219000 -3.317000 0
155918.984000 496944.813000 -3.409000 0
155918.875000 496944.375000 -3.433000 0
155918.938000 496944.594000 -2.112000 0
155918.781000 496943.969000 -3.513000 0
155918.672000 496943.594000 -3.504000 0
155918.578000 496943.188000 -3.484000 0
155918.469000 496942.813000 -3.497000 0
155918.375000 496942.438000 -3.487000 0
155918.266000 496942.031000 -3.488000 0
155918.156000 496941.625000 -3.526000 0
155918.078000 496941.281000 -3.480000 0
155918.125000 496941.469000 -2.109000 0
155917.969000 496940.844000 -3.496000 0
155917.875000 496940.500000 -3.461000 0
155918.078000 496941.313000 -0.888000 1
155918.000000 496940.969000 -0.763000 1
155917.672000 496939.719000 -3.517000 0
155917.875000 496940.531000 -0.914000 1
155917.578000 496939.375000 -3.461000 0
155917.469000 496938.938000 -3.580000 0
155917.625000 496939.531000 -1.435000 1
155917.375000 496938.563000 -3.573000 0
155917.797000 496940.188000 0.893000 0
155917.531000 496939.188000 -1.344000 1
155917.266000 496938.219000 -3.498000 0
155917.797000 496940.188000 1.727000 1
155917.391000 496938.625000 -1.719000 1
155917.172000 496937.813000 -3.536000 0
155917.266000 496938.188000 -1.862000 1
155917.063000 496937.438000 -3.570000 0
155917.422000 496938.750000 0.336000 0
155917.172000 496937.781000 -1.819000 1
155916.969000 496937.031000 -3.514000 0
155917.422000 496938.750000 1.948000 0
155917.078000 496937.469000 -0.905000 1
155916.766000 496936.281000 -3.523000 0
155917.359000 496938.500000 2.261000 0
155917.031000 496937.250000 -0.537000 1
155916.672000 496935.906000 -3.481000 0
155916.984000 496937.063000 -0.034000 1
155916.563000 496935.500000 -3.499000 0
155916.922000 496936.844000 0.331000 1
155916.469000 496935.125000 -3.490000 0
155916.359000 496934.719000 -3.471000 0
155916.906000 496936.750000 1.946000 0
155916.328000 496934.563000 -2.933000 0
155916.266000 496934.313000 -3.458000 0
155916.156000 496933.938000 -3.493000 0
155916.063000 496933.563000 -3.458000 0
155915.969000 496933.188000 -3.435000 0
155915.875000 496932.844000 -3.383000 0
155915.766000 496932.406000 -3.457000 0
155915.656000 496932.000000 -3.459000 0
155915.563000 496931.625000 -3.479000 0
155915.469000 496931.281000 -3.411000 0
155915.359000 496930.906000 -3.298000 0
155915.250000 496930.438000 -3.395000 0
155915.156000 496930.063000 -3.468000 0
155915.047000 496929.656000 -3.433000 0
155914.938000 496929.281000 -3.447000 0
155914.844000 496928.906000 -3.422000 0
155914.734000 496928.500000 -3.477000 0
155914.641000 496928.094000 -3.477000 0
155914.703000 496928.313000 -2.210000 0
155914.531000 496927.688000 -3.568000 0
155914.453000 496927.375000 -3.448000 0
155919.938000 496949.781000 -3.477000 0
155919.828000 496949.406000 -3.439000 0
155919.719000 496948.969000 -3.575000 0
155919.953000 496949.844000 -0.676000 0
155919.609000 496948.563000 -3.589000 0
155919.516000 496948.188000 -3.499000 0
155919.422000 496947.813000 -3.481000 0
155919.313000 496947.406000 -3.554000 0
155919.359000 496947.594000 -2.251000 0
155919.219000 496947.063000 -3.492000 0
155919.109000 496946.656000 -3.536000 0
155919.031000 496946.344000 -3.414000 0
155918.938000 496945.938000 -3.343000 0
155918.828000 496945.563000 -3.371000 0
155918.938000 496945.969000 -1.643000 0
155918.719000 496945.156000 -3.453000 0
155918.625000 496944.750000 -3.449000 0
155918.516000 496944.313000 -3.470000 0
155918.422000 496943.969000 -3.481000 0
155918.313000 496943.594000 -3.453000 0
155918.203000 496943.188000 -3.463000 0
155918.109000 496942.781000 -3.524000 0
155918.016000 496942.406000 -3.508000 0
155917.906000 496942.031000 -3.518000 0
155917.813000 496941.625000 -3.555000 0
155917.703000 496941.250000 -3.607000 0
155917.609000 496940.875000 -3.564000 0
155917.500000 496940.469000 -3.568000 0
155917.750000 496941.406000 -0.734000 0
155917.422000 496940.125000 -3.565000 0
155917.313000 496939.719000 -3.571000 0
155917.469000 496940.313000 -1.373000 1
155917.203000 496939.344000 -3.567000 0
155917.359000 496939.906000 -1.443000 1
155917.109000 496938.969000 -3.563000 0
155917.281000 496939.594000 -1.264000 1
155917.000000 496938.531000 -3.583000 0
155917.125000 496938.969000 -1.765000 1
155916.906000 496938.188000 -3.548000 0
155917.016000 496938.594000 -1.798000 1
155916.813000 496937.813000 -3.572000 0
155917.266000 496939.531000 1.088000 0
155916.922000 496938.188000 -1.849000 1
155916.703000 496937.406000 -3.579000 0
155916.813000 496937.781000 -1.836000 1
155916.609000 496937.031000 -3.476000 0
155916.844000 496937.938000 -0.603000 1
155916.688000 496937.313000 -1.962000 0
155916.516000 496936.656000 -3.437000 0
155916.766000 496937.625000 -0.431000 1
155916.406000 496936.250000 -3.472000 0
155916.656000 496937.188000 -0.537000 1
155916.297000 496935.844000 -3.502000 0
155916.625000 496937.063000 0.084000 1
155916.188000 496935.438000 -3.546000 0
155916.625000 496937.094000 0.917000 1
155916.094000 496935.063000 -3.578000 0
155916.672000 496937.219000 2.063000 0
155916.547000 496936.781000 1.046000 1
155916.297000 496935.813000 -1.035000 0
155916.016000 496934.750000 -3.439000 0
155916.547000 496936.781000 1.940000 0
155915.906000 496934.313000 -3.459000 0
155915.813000 496933.938000 -3.461000 0
155915.688000 496933.531000 -3.544000 0
155915.594000 496933.125000 -3.515000 0
155915.500000 496932.781000 -3.465000 0
155915.391000 496932.375000 -3.482000 0
155915.297000 496932.000000 -3.399000 0
155915.188000 496931.594000 -3.408000 0
155915.094000 496931.250000 -3.444000 0
155915.000000 496930.875000 -3.347000 0
155914.891000 496930.438000 -3.422000 0
155914.797000 496930.125000 -3.396000 0
155914.703000 496929.750000 -3.320000 0
155914.594000 496929.313000 -3.430000 0
155914.500000 496928.938000 -3.448000 0
155914.391000 496928.500000 -3.481000 0
155914.281000 496928.094000 -3.542000 0
155914.188000 496927.719000 -3.544000 0
155914.094000 496927.375000 -3.486000 0
155919.531000 496949.938000 -3.557000 0
155919.453000 496949.594000 -3.457000 0
155919.359000 496949.250000 -3.371000 0
155919.516000 496949.813000 -1.295000 1
155919.266000 496948.875000 -3.406000 0
155919.438000 496949.531000 -1.037000 0
155919.141000 496948.438000 -3.501000 0
155919.031000 496948.031000 -3.518000 0
155918.953000 496947.719000 -3.438000 0
155918.859000 496947.344000 -3.394000 0
155918.750000 496946.906000 -3.417000 0
155918.656000 496946.531000 -3.402000 0
155918.547000 496946.156000 -3.439000 0
155918.453000 496945.781000 -3.325000 0
155918.359000 496945.406000 -3.368000 0
155918.250000 496945.000000 -3.456000 0
155918.141000 496944.563000 -3.492000 0
155918.031000 496944.188000 -3.524000 0
155917.953000 496943.844000 -3.532000 0
155917.844000 496943.469000 -3.539000 0
155917.734000 496943.031000 -3.575000 0
155917.641000 496942.688000 -3.553000 0
155917.547000 496942.281000 -3.594000 0
155917.438000 496941.875000 -3.568000 0
155917.344000 496941.531000 -3.524000 0
155917.250000 496941.156000 -3.537000 0
155917.469000 496941.969000 -0.773000 0
155917.141000 496940.719000 -3.560000 0
155917.047000 496940.375000 -3.524000 0
155916.953000 496940.000000 -3.553000 0
155916.844000 496939.594000 -3.554000 0
155916.984000 496940.094000 -1.476000 1
155916.734000 496939.156000 -3.579000 0
155916.922000 496939.906000 -1.050000 1
155916.641000 496938.813000 -3.530000 0
155916.750000 496939.219000 -1.694000 1
155916.531000 496938.406000 -3.554000 0
155916.656000 496938.906000 -1.534000 1
155916.422000 496938.000000 -3.510000 0
155916.531000 496938.406000 -1.853000 1
155916.344000 496937.688000 -3.444000 0
155916.703000 496939.031000 0.356000 1
155916.234000 496937.281000 -3.490000 0
155916.531000 496938.406000 -0.127000 1
155916.141000 496936.938000 -3.425000 0
155916.406000 496937.906000 -0.383000 1
155916.047000 496936.563000 -3.384000 0
155916.516000 496938.313000 1.407000 0
155916.281000 496937.438000 -0.537000 1
155915.938000 496936.125000 -3.493000 0
155916.391000 496937.844000 1.253000 0
155916.203000 496937.125000 -0.366000 1
155915.844000 496935.781000 -3.357000 0
155916.031000 496936.469000 -0.955000 0
155915.734000 496935.344000 -3.444000 0
155915.625000 496934.906000 -3.559000 0
155916.078000 496936.656000 1.175000 1
155915.516000 496934.531000 -3.481000 0
155915.422000 496934.156000 -3.461000 0
155915.328000 496933.781000 -3.514000 0
155915.219000 496933.344000 -3.578000 0
155915.109000 496932.938000 -3.533000 0
155915.031000 496932.656000 -3.434000 0
155914.938000 496932.250000 -3.451000 0
155915.000000 496932.531000 -1.954000 0
155914.828000 496931.844000 -3.453000 0
155914.750000 496931.563000 -3.293000 0
155914.641000 496931.125000 -3.397000 0
155914.531000 496930.750000 -3.385000 0
155914.422000 496930.344000 -3.458000 0
155914.344000 496930.000000 -3.408000 0
155914.234000 496929.594000 -3.427000 0
155914.125000 496929.156000 -3.414000 0
155914.016000 496928.750000 -3.534000 0
155913.922000 496928.375000 -3.511000 0
155913.813000 496928.000000 -3.483000 0
155913.734000 496927.688000 -3.362000 0
155919.203000 496949.969000 -3.571000 0
155919.109000 496949.625000 -3.437000 0
155919.188000 496949.844000 -1.993000 0
155919.016000 496949.250000 -3.367000 0
155919.109000 496949.563000 -1.818000 0
155918.906000 496948.781000 -3.589000 0
155918.813000 496948.438000 -3.470000 0
155918.688000 496948.000000 -3.566000 0
155918.609000 496947.625000 -3.536000 0
155918.688000 496947.969000 -1.872000 0
155918.516000 496947.313000 -3.403000 0
155918.422000 496946.969000 -3.309000 0
155918.313000 496946.563000 -3.330000 0
155918.219000 496946.156000 -3.402000 0
155918.141000 496945.844000 -3.292000 0
155918.016000 496945.344000 -3.506000 0
155917.922000 496945.000000 -3.505000 0
155917.953000 496945.125000 -2.304000 0
155917.922000 496945.031000 -1.674000 0
155917.703000 496944.188000 -3.554000 0
155917.609000 496943.844000 -3.533000 0
155917.516000 496943.438000 -3.588000 0
155917.406000 496943.031000 -3.566000 0
155917.313000 496942.656000 -3.564000 0
155917.203000 496942.281000 -3.559000 0
155917.109000 496941.906000 -3.504000 0
155917.016000 496941.531000 -3.514000 0
155916.906000 496941.156000 -3.516000 0
155916.813000 496940.750000 -3.518000 0
155916.703000 496940.344000 -3.508000 0
155916.797000 496940.688000 -1.919000 0
155916.609000 496939.969000 -3.517000 0
155916.484000 496939.531000 -3.591000 0
155916.391000 496939.156000 -3.517000 0
155916.609000 496939.969000 -0.918000 1
155916.313000 496938.875000 -3.381000 0
155916.484000 496939.500000 -1.164000 1
155916.219000 496938.500000 -3.385000 0
155916.328000 496938.875000 -1.628000 1
155916.109000 496938.063000 -3.427000 0
155916.469000 496939.438000 0.449000 0
155916.203000 496938.438000 -1.730000 1
155916.000000 496937.688000 -3.439000 0
155916.297000 496938.781000 -0.197000 1
155915.922000 496937.313000 -3.434000 0
155915.797000 496936.906000 -3.436000 0
155916.094000 496937.969000 -0.170000 1
155915.703000 496936.500000 -3.447000 0
155916.188000 496938.344000 1.479000 0
155915.969000 496937.531000 -0.334000 1
155915.609000 496936.125000 -3.423000 0
155916.078000 496937.938000 1.454000 0
155915.938000 496937.406000 0.262000 1
155915.500000 496935.719000 -3.436000 0
155915.938000 496937.375000 1.136000 1
155915.391000 496935.313000 -3.462000 0
155915.781000 496936.813000 0.631000 1
155915.297000 496934.938000 -3.530000 0
155915.188000 496934.500000 -3.547000 0
155915.078000 496934.125000 -3.503000 0
155914.984000 496933.781000 -3.507000 0
155914.891000 496933.375000 -3.557000 0
155914.781000 496933.000000 -3.547000 0
155914.703000 496932.656000 -3.452000 0
155914.609000 496932.313000 -3.451000 0
155914.500000 496931.875000 -3.467000 0
155914.406000 496931.563000 -3.332000 0
155914.297000 496931.125000 -3.473000 0
155914.219000 496930.844000 -3.204000 0
155914.094000 496930.313000 -3.442000 0
155914.234000 496930.875000 -1.476000 0
155914.000000 496929.969000 -3.433000 0
155913.906000 496929.625000 -3.338000 0
155913.938000 496929.750000 -2.152000 0
155913.797000 496929.188000 -3.394000 0
155913.688000 496928.750000 -3.513000 0
155913.578000 496928.344000 -3.504000 0
155913.484000 496928.000000 -3.343000 0
155913.375000 496927.594000 -3.387000 0
155913.375000 496927.563000 -2.655000 0
155918.703000 496949.625000 -3.547000 0
155918.734000 496949.750000 -2.392000 0
155918.625000 496949.313000 -3.414000 0
155918.734000 496949.750000 -1.544000 1
155918.516000 496948.906000 -3.467000 0
155918.422000 496948.563000 -3.406000 0
155918.328000 496948.156000 -3.392000 0
155918.203000 496947.719000 -3.544000 0
155918.125000 496947.375000 -3.525000 0
155918.031000 496947.000000 -3.485000 0
155917.922000 496946.594000 -3.541000 0
155917.844000 496946.313000 -3.373000 0
155917.734000 496945.875000 -3.486000 0
155917.625000 496945.469000 -3.561000 0
155917.516000 496945.063000 -3.535000 0
155917.438000 496944.719000 -3.477000 0
155917.328000 496944.344000 -3.451000 0
155917.234000 496943.969000 -3.386000 0
155917.141000 496943.625000 -3.387000 0
155917.047000 496943.219000 -3.383000 0
155916.938000 496942.813000 -3.421000 0
155916.828000 496942.406000 -3.462000 0
155916.719000 496942.000000 -3.430000 0
155916.625000 496941.625000 -3.428000 0
155916.516000 496941.219000 -3.457000 0
155916.406000 496940.813000 -3.503000 0
155916.313000 496940.438000 -3.515000 0
155916.219000 496940.094000 -3.483000 0
155916.125000 496939.688000 -3.506000 0
155916.000000 496939.219000 -3.587000 0
155916.219000 496940.094000 -0.852000 0
155915.922000 496938.938000 -3.454000 0
155915.844000 496938.625000 -3.293000 0
155915.719000 496938.156000 -3.391000 0
155916.000000 496939.188000 -0.190000 0
155915.609000 496937.750000 -3.373000 0
155915.906000 496938.844000 -0.178000 1
155915.531000 496937.406000 -3.351000 0
155915.422000 496937.000000 -3.350000 0
155915.750000 496938.250000 0.217000 1
155915.563000 496937.563000 -1.262000 0
155915.313000 496936.594000 -3.396000 0
155915.219000 496936.219000 -3.432000 0
155915.578000 496937.594000 0.472000 1
155915.109000 496935.844000 -3.421000 0
155915.000000 496935.406000 -3.483000 0
155915.406000 496936.938000 0.652000 0
155914.922000 496935.094000 -3.410000 0
155914.813000 496934.656000 -3.516000 0
155914.703000 496934.250000 -3.520000 0
155914.609000 496933.938000 -3.430000 0
155914.516000 496933.563000 -3.405000 0
155914.406000 496933.125000 -3.474000 0
155914.297000 496932.719000 -3.534000 0
155914.203000 496932.375000 -3.489000 0
155914.109000 496931.969000 -3.415000 0
155914.016000 496931.594000 -3.395000 0
155913.922000 496931.250000 -3.416000 0
155913.813000 496930.875000 -3.358000 0
155913.703000 496930.406000 -3.438000 0
155913.609000 496930.063000 -3.391000 0
155913.500000 496929.625000 -3.438000 0
155913.672000 496930.281000 -1.104000 0
155913.375000 496929.188000 -3.478000 0
155913.281000 496928.813000 -3.477000 0
155913.203000 496928.469000 -3.447000 0
155913.094000 496928.094000 -3.403000 0
155913.281000 496928.781000 -1.009000 0
155913.000000 496927.750000 -3.323000 0
155913.016000 496927.813000 -2.363000 0
155918.328000 496949.594000 -3.423000 0
155918.219000 496949.156000 -3.527000 0
155918.141000 496948.906000 -3.303000 0
155918.031000 496948.438000 -3.424000 0
155917.922000 496948.000000 -3.550000 0
155917.828000 496947.656000 -3.512000 0
155918.031000 496948.438000 -0.910000 0
155917.719000 496947.250000 -3.597000 0
155917.609000 496946.875000 -3.564000 0
155917.516000 496946.469000 -3.568000 0
155917.422000 496946.094000 -3.566000 0
155917.328000 496945.750000 -3.432000 0
155917.250000 496945.469000 -3.223000 0
155917.156000 496945.063000 -3.281000 0
155917.031000 496944.625000 -3.384000 0
155916.922000 496944.219000 -3.371000 0
155916.844000 496943.875000 -3.331000 0
155916.719000 496943.406000 -3.432000 0
155916.609000 496943.000000 -3.496000 0
155916.516000 496942.625000 -3.542000 0
155916.422000 496942.281000 -3.492000 0
155916.313000 496941.844000 -3.501000 0
155916.219000 496941.469000 -3.463000 0
155916.125000 496941.125000 -3.444000 0
155916.016000 496940.719000 -3.445000 0
155915.906000 496940.281000 -3.530000 0
155915.813000 496939.938000 -3.498000 0
155915.891000 496940.250000 -1.887000 0
155915.703000 496939.500000 -3.553000 0
155915.594000 496939.094000 -3.577000 0
155915.828000 496940.000000 -0.778000 0
155915.500000 496938.750000 -3.524000 0
155915.406000 496938.406000 -3.439000 0
155915.313000 496938.031000 -3.377000 0
155915.234000 496937.719000 -3.292000 0
155915.125000 496937.313000 -3.384000 0
155915.031000 496936.906000 -3.381000 0
155915.219000 496937.656000 -0.878000 0
155914.922000 496936.531000 -3.342000 0
155915.188000 496937.500000 -0.393000 0
155914.828000 496936.125000 -3.456000 0
155914.719000 496935.719000 -3.504000 0
155914.609000 496935.313000 -3.511000 0
155914.516000 496934.969000 -3.441000 0
155914.406000 496934.531000 -3.524000 0
155914.297000 496934.125000 -3.512000 0
155914.203000 496933.781000 -3.506000 0
155914.109000 496933.406000 -3.487000 0
155914.344000 496934.313000 -0.600000 0
155914.000000 496933.000000 -3.445000 0
155913.906000 496932.594000 -3.542000 0
155913.797000 496932.188000 -3.526000 0
155913.688000 496931.813000 -3.447000 0
155913.594000 496931.406000 -3.472000 0
155913.500000 496931.063000 -3.473000 0
155913.391000 496930.656000 -3.499000 0
155913.297000 496930.281000 -3.458000 0
155913.203000 496929.906000 -3.464000 0
155913.094000 496929.531000 -3.379000 0
155913.000000 496929.156000 -3.374000 0
155912.891000 496928.719000 -3.516000 0
155912.781000 496928.313000 -3.456000 0
155912.688000 496927.906000 -3.418000 0
155912.578000 496927.531000 -3.495000 0
155917.766000 496949.031000 -3.471000 0
155917.672000 496948.688000 -3.469000 0
155917.719000 496948.875000 -2.139000 0
155917.563000 496948.281000 -3.484000 0
155917.453000 496947.844000 -3.574000 0
155917.359000 496947.469000 -3.587000 0
155917.266000 496947.125000 -3.444000 0
155917.172000 496946.781000 -3.326000 0
155917.078000 496946.406000 -3.356000 0
155916.969000 496946.000000 -3.411000 0
155916.859000 496945.563000 -3.441000 0
155916.766000 496945.188000 -3.447000 0
155916.672000 496944.844000 -3.420000 0
155916.563000 496944.406000 -3.468000 0
155916.469000 496944.063000 -3.411000 0
155916.375000 496943.688000 -3.405000 0
155916.250000 496943.250000 -3.482000 0
155916.156000 496942.844000 -3.510000 0
155916.063000 496942.500000 -3.460000 0
155915.953000 496942.094000 -3.465000 0
155915.844000 496941.688000 -3.466000 0
155915.750000 496941.344000 -3.469000 0
155915.656000 496940.906000 -3.474000 0
155915.750000 496941.313000 -1.758000 0
155915.547000 496940.531000 -3.492000 0
155915.453000 496940.156000 -3.492000 0
155915.344000 496939.750000 -3.562000 0
155915.250000 496939.375000 -3.494000 0
155915.141000 496938.969000 -3.594000 0
155915.063000 496938.625000 -3.572000 0
155914.969000 496938.313000 -3.355000 0
155914.875000 496937.938000 -3.346000 0
155914.766000 496937.531000 -3.447000 0
155914.656000 496937.125000 -3.464000 0
155914.563000 496936.750000 -3.417000 0
155914.453000 496936.344000 -3.486000 0
155914.359000 496935.969000 -3.454000 0
155914.250000 496935.563000 -3.452000 0
155914.172000 496935.219000 -3.409000 0
155914.047000 496934.781000 -3.512000 0
155913.938000 496934.344000 -3.568000 0
155913.844000 496934.000000 -3.436000 0
155913.750000 496933.656000 -3.401000 0
155913.641000 496933.188000 -3.484000 0
155913.531000 496932.781000 -3.507000 0
155913.594000 496933.031000 -2.250000 0
155913.438000 496932.406000 -3.577000 0
155913.344000 496932.063000 -3.512000 0
155913.234000 496931.656000 -3.502000 0
155913.297000 496931.875000 -2.150000 0
155913.141000 496931.281000 -3.501000 0
155913.297000 496931.875000 -1.311000 0
155913.047000 496930.906000 -3.452000 0
155912.938000 496930.500000 -3.462000 0
155912.828000 496930.094000 -3.476000 0
155912.719000 496929.688000 -3.507000 0
155912.625000 496929.313000 -3.476000 0
155912.516000 496928.875000 -3.544000 0
155912.422000 496928.531000 -3.535000 0
155912.313000 496928.125000 -3.528000 0
155912.219000 496927.719000 -3.533000 0
155912.125000 496927.406000 -3.489000 0
155912.234000 496927.813000 -0.919000 0
155917.688000 496949.906000 -3.465000 0
155917.609000 496949.594000 -3.286000 0
155917.484000 496949.125000 -3.468000 0
155917.500000 496949.156000 -2.575000 0
155917.375000 496948.719000 -3.549000 0
155917.266000 496948.281000 -3.604000 0
155917.172000 496947.875000 -3.578000 0
155917.078000 496947.563000 -3.487000 0
155916.984000 496947.188000 -3.392000 0
155916.906000 496946.875000 -3.257000 0
155916.797000 496946.469000 -3.333000 0
155916.688000 496946.063000 -3.448000 0
155916.594000 496945.656000 -3.398000 0
155916.484000 496945.313000 -3.353000 0
155916.391000 496944.938000 -3.378000 0
155916.359000 496944.781000 -2.779000 0
155916.281000 496944.469000 -3.484000 0
155916.172000 496944.094000 -3.449000 0
155916.078000 496943.719000 -3.450000 0
155915.984000 496943.313000 -3.455000 0
155915.875000 496942.938000 -3.425000 0
155915.781000 496942.563000 -3.462000 0
155915.672000 496942.156000 -3.489000 0
155915.578000 496941.750000 -3.469000 0
155915.484000 496941.438000 -3.383000 0
155915.375000 496941.031000 -3.461000 0
155915.281000 496940.656000 -3.452000 0
155915.172000 496940.250000 -3.499000 0
155915.078000 496939.875000 -3.507000 0
155914.984000 496939.500000 -3.475000 0
155915.016000 496939.625000 -2.336000 0
155914.875000 496939.094000 -3.522000 0
155914.891000 496939.156000 -2.577000 0
155914.781000 496938.719000 -3.567000 0
155914.688000 496938.375000 -3.388000 0
155914.594000 496938.000000 -3.337000 0
155914.484000 496937.594000 -3.400000 0
155914.391000 496937.219000 -3.462000 0
155914.281000 496936.813000 -3.412000 0
155914.172000 496936.406000 -3.455000 0
155914.063000 496936.000000 -3.508000 0
155913.969000 496935.625000 -3.423000 0
155913.859000 496935.219000 -3.442000 0
155913.766000 496934.844000 -3.494000 0
155913.656000 496934.406000 -3.534000 0
155913.563000 496934.031000 -3.542000 0
155913.469000 496933.688000 -3.515000 0
155913.359000 496933.313000 -3.424000 0
155913.266000 496932.906000 -3.424000 0
155913.156000 496932.500000 -3.512000 0
155913.047000 496932.063000 -3.547000 0
155912.938000 496931.688000 -3.493000 0
155912.859000 496931.344000 -3.472000 0
155912.750000 496930.938000 -3.468000 0
155912.656000 496930.563000 -3.432000 0
155912.547000 496930.156000 -3.490000 0
155912.453000 496929.781000 -3.471000 0
155912.344000 496929.406000 -3.479000 0
155912.234000 496928.969000 -3.545000 0
155912.141000 496928.625000 -3.565000 0
155912.047000 496928.219000 -3.522000 0
155911.953000 496927.875000 -3.437000 0
155911.859000 496927.500000 -3.474000 0
155917.297000 496949.844000 -3.050000 0
155917.141000 496949.281000 -3.460000 0
155917.047000 496948.906000 -3.518000 0
155917.313000 496949.875000 -0.443000 0
155916.938000 496948.469000 -3.600000 0
155917.016000 496948.781000 -2.044000 0
155916.844000 496948.125000 -3.500000 0
155916.766000 496947.813000 -3.403000 0
155916.656000 496947.406000 -3.413000 0
155916.563000 496947.000000 -3.426000 0
155916.469000 496946.656000 -3.389000 0
155916.359000 496946.250000 -3.420000 0
155916.234000 496945.781000 -3.512000 0
155916.156000 496945.469000 -3.397000 0
155916.063000 496945.094000 -3.389000 0
155915.953000 496944.688000 -3.404000 0
155915.844000 496944.281000 -3.385000 0
155915.750000 496943.906000 -3.473000 0
155915.656000 496943.531000 -3.459000 0
155915.547000 496943.125000 -3.499000 0
155915.453000 496942.813000 -3.442000 0
155915.344000 496942.375000 -3.503000 0
155915.250000 496942.000000 -3.460000 0
155915.172000 496941.688000 -3.381000 0
155915.063000 496941.313000 -3.365000 0
155914.953000 496940.844000 -3.501000 0
155914.859000 496940.500000 -3.387000 0
155914.750000 496940.094000 -3.480000 0
155914.656000 496939.719000 -3.403000 0
155914.547000 496939.313000 -3.490000 0
155914.438000 496938.906000 -3.559000 0
155914.344000 496938.500000 -3.524000 0
155914.250000 496938.125000 -3.407000 0
155914.141000 496937.750000 -3.416000 0
155914.047000 496937.375000 -3.413000 0
155913.953000 496937.000000 -3.324000 0
155913.844000 496936.563000 -3.464000 0
155913.750000 496936.250000 -3.458000 0
155913.641000 496935.813000 -3.425000 0
155913.531000 496935.406000 -3.492000 0
155913.438000 496935.000000 -3.546000 0
155913.344000 496934.656000 -3.416000 0
155913.219000 496934.188000 -3.539000 0
155913.125000 496933.844000 -3.519000 0
155913.031000 496933.469000 -3.469000 0
155912.922000 496933.063000 -3.472000 0
155912.828000 496932.688000 -3.480000 0
155912.719000 496932.250000 -3.538000 0
155912.609000 496931.875000 -3.573000 0
155912.516000 496931.500000 -3.554000 0
155912.422000 496931.156000 -3.546000 0
155912.328000 496930.750000 -3.522000 0
155912.234000 496930.406000 -3.443000 0
155912.125000 496930.031000 -3.473000 0
155912.031000 496929.625000 -3.469000 0
155911.922000 496929.219000 -3.504000 0
155911.813000 496928.813000 -3.565000 0
155911.719000 496928.438000 -3.551000 0
155911.641000 496928.125000 -3.323000 0
155911.547000 496927.781000 -3.265000 0
155916.875000 496949.563000 -3.514000 0
155916.781000 496949.188000 -3.477000 0
155916.578000 496948.406000 -3.530000 0
155916.484000 496948.031000 -3.439000 0
155916.406000 496947.719000 -3.364000 0
155916.297000 496947.313000 -3.376000 0
155916.188000 496946.906000 -3.354000 0
155916.094000 496946.531000 -3.425000 0
155915.984000 496946.125000 -3.451000 0
155915.891000 496945.750000 -3.401000 0
155915.813000 496945.438000 -3.355000 0
155915.719000 496945.063000 -3.382000 0
155915.594000 496944.625000 -3.427000 0
155915.500000 496944.219000 -3.465000 0
155915.406000 496943.875000 -3.493000 0
155915.297000 496943.469000 -3.477000 0
155915.188000 496943.063000 -3.504000 0
155915.094000 496942.656000 -3.556000 0
155914.984000 496942.281000 -3.494000 0
155914.891000 496941.938000 -3.427000 0
155914.797000 496941.594000 -3.433000 0
155914.703000 496941.188000 -3.420000 0
155914.594000 496940.750000 -3.450000 0
155914.500000 496940.406000 -3.428000 0
155914.391000 496939.969000 -3.444000 0
155914.281000 496939.563000 -3.500000 0
155914.172000 496939.188000 -3.509000 0
155914.078000 496938.781000 -3.554000 0
155913.984000 496938.406000 -3.521000 0
155913.875000 496938.031000 -3.466000 0
155913.797000 496937.719000 -3.370000 0
155913.688000 496937.313000 -3.398000 0
155913.578000 496936.875000 -3.434000 0
155913.484000 496936.500000 -3.455000 0
155913.375000 496936.094000 -3.459000 0
155913.281000 496935.719000 -3.442000 0
155913.172000 496935.281000 -3.523000 0
155913.078000 496934.969000 -3.430000 0
155912.984000 496934.594000 -3.311000 0
155912.875000 496934.156000 -3.481000 0
155912.766000 496933.781000 -3.506000 0
155912.672000 496933.406000 -3.439000 0
155912.578000 496933.031000 -3.425000 0
155912.484000 496932.719000 -3.372000 0
155912.375000 496932.250000 -3.487000 0
155912.266000 496931.844000 -3.508000 0
155912.172000 496931.469000 -3.560000 0
155912.078000 496931.094000 -3.529000 0
155911.969000 496930.719000 -3.451000 0
155911.859000 496930.281000 -3.568000 0
155911.766000 496929.906000 -3.557000 0
155911.656000 496929.500000 -3.585000 0
155911.563000 496929.125000 -3.513000 0
155911.469000 496928.750000 -3.492000 0
155911.359000 496928.344000 -3.473000 0
155911.266000 496928.000000 -3.378000 0
155911.141000 496927.531000 -3.533000 0
155916.516000 496949.813000 -3.548000 0
155916.406000 496949.406000 -3.564000 0
155916.297000 496949.000000 -3.623000 0
155916.219000 496948.656000 -3.566000 0
155916.109000 496948.281000 -3.517000 0
155916.016000 496947.938000 -3.483000 0
155915.938000 496947.625000 -3.375000 0
155915.844000 496947.219000 -3.347000 0
155915.750000 496946.875000 -3.330000 0
155915.641000 496946.500000 -3.336000 0
155915.531000 496946.063000 -3.456000 0
155915.438000 496945.688000 -3.405000 0
155915.359000 496945.375000 -3.302000 0
155915.250000 496944.938000 -3.416000 0
155915.141000 496944.531000 -3.427000 0
155915.031000 496944.125000 -3.487000 0
155914.938000 496943.750000 -3.488000 0
155914.828000 496943.344000 -3.504000 0
155914.719000 496942.938000 -3.535000 0
155914.828000 496943.344000 -1.842000 0
155914.625000 496942.594000 -3.500000 0
155914.531000 496942.188000 -3.463000 0
155914.438000 496941.813000 -3.395000 0
155914.328000 496941.438000 -3.374000 0
155914.234000 496941.063000 -3.376000 0
155914.125000 496940.656000 -3.429000 0
155914.031000 496940.313000 -3.450000 0
155913.922000 496939.906000 -3.454000 0
155913.813000 496939.469000 -3.452000 0
155913.734000 496939.125000 -3.442000 0
155913.609000 496938.688000 -3.543000 0
155913.516000 496938.281000 -3.494000 0
155913.438000 496937.969000 -3.324000 0
155913.313000 496937.531000 -3.510000 0
155913.203000 496937.125000 -3.471000 0
155913.125000 496936.781000 -3.407000 0
155913.031000 496936.438000 -3.363000 0
155912.922000 496936.000000 -3.427000 0
155912.813000 496935.594000 -3.487000 0
155912.719000 496935.281000 -3.456000 0
155912.625000 496934.875000 -3.477000 0
155912.516000 496934.500000 -3.369000 0
155912.422000 496934.094000 -3.507000 0
155912.313000 496933.719000 -3.507000 0
155912.219000 496933.313000 -3.430000 0
155912.125000 496932.969000 -3.433000 0
155912.016000 496932.563000 -3.516000 0
155911.906000 496932.125000 -3.534000 0
155911.797000 496931.719000 -3.558000 0
155911.703000 496931.375000 -3.559000 0
155911.594000 496930.938000 -3.575000 0
155911.484000 496930.531000 -3.603000 0
155911.391000 496930.156000 -3.578000 0
155911.281000 496929.781000 -3.529000 0
155911.188000 496929.344000 -3.519000 0
155911.109000 496929.094000 -3.300000 0
155911.031000 496928.781000 -3.234000 0
155910.891000 496928.250000 -3.514000 0
155910.797000 496927.906000 -3.403000 0
155910.688000 496927.438000 -3.547000 0
155916.078000 496949.500000 -3.571000 0
155915.969000 496949.125000 -3.592000 0
155915.891000 496948.813000 -3.517000 0
155915.781000 496948.375000 -3.537000 0
155915.688000 496948.031000 -3.484000 0
155915.594000 496947.688000 -3.474000 0
155915.500000 496947.281000 -3.469000 0
155915.406000 496946.906000 -3.413000 0
155915.297000 496946.531000 -3.436000 0
155915.188000 496946.125000 -3.464000 0
155915.094000 496945.750000 -3.448000 0
155915.000000 496945.375000 -3.481000 0
155914.906000 496945.000000 -3.425000 0
155914.781000 496944.563000 -3.452000 0
155914.688000 496944.188000 -3.472000 0
155914.594000 496943.781000 -3.492000 0
155914.469000 496943.375000 -3.509000 0
155914.375000 496943.000000 -3.473000 0
155914.297000 496942.688000 -3.417000 0
155914.188000 496942.313000 -3.434000 0
155914.094000 496941.906000 -3.368000 0
155914.000000 496941.531000 -3.387000 0
155913.891000 496941.156000 -3.375000 0
155913.781000 496940.719000 -3.396000 0
155913.688000 496940.375000 -3.367000 0
155913.578000 496939.938000 -3.412000 0
155913.469000 496939.531000 -3.495000 0
155913.375000 496939.125000 -3.462000 0
155913.281000 496938.781000 -3.496000 0
155913.156000 496938.313000 -3.544000 0
155913.078000 496938.000000 -3.436000 0
155912.984000 496937.625000 -3.484000 0
155912.891000 496937.250000 -3.443000 0
155912.797000 496936.906000 -3.356000 0
155912.688000 496936.500000 -3.464000 0
155912.578000 496936.094000 -3.446000 0
155912.484000 496935.719000 -3.430000 0
155912.391000 496935.344000 -3.454000 0
155912.281000 496934.969000 -3.490000 0
155912.188000 496934.594000 -3.374000 0
155912.078000 496934.188000 -3.433000 0
155911.984000 496933.781000 -3.464000 0
155911.875000 496933.375000 -3.549000 0
155911.766000 496932.969000 -3.528000 0
155911.672000 496932.625000 -3.471000 0
155911.578000 496932.250000 -3.376000 0
155911.469000 496931.844000 -3.372000 0
155911.359000 496931.406000 -3.488000 0
155911.250000 496931.000000 -3.509000 0
155911.156000 496930.594000 -3.542000 0
155911.063000 496930.250000 -3.526000 0
155911.125000 496930.531000 -2.060000 0
155910.953000 496929.875000 -3.503000 0
155911.047000 496930.219000 -1.789000 0
155910.844000 496929.438000 -3.484000 0
155910.750000 496929.063000 -3.554000 0
155910.906000 496929.688000 -1.378000 0
155910.766000 496929.156000 -2.525000 0
155910.531000 496928.250000 -3.530000 0
155910.438000 496927.875000 -3.544000 0
155910.344000 496927.500000 -3.523000 0
155910.375000 496927.625000 -2.382000 0
155910.344000 496927.500000 -1.778000 0
155915.766000 496949.688000 -3.413000 0
155915.641000 496949.219000 -3.565000 0
155915.563000 496948.875000 -3.574000 0
155915.453000 496948.500000 -3.513000 0
155915.359000 496948.094000 -3.504000 0
155915.266000 496947.750000 -3.493000 0
155915.156000 496947.344000 -3.496000 0
155915.047000 496946.938000 -3.512000 0
155914.953000 496946.563000 -3.498000 0
155914.859000 496946.188000 -3.472000 0
155914.750000 496945.781000 -3.424000 0
155914.672000 496945.469000 -3.268000 0
155914.750000 496945.750000 -1.831000 0
155914.563000 496945.063000 -3.382000 0
155914.453000 496944.656000 -3.418000 0
155914.359000 496944.281000 -3.456000 0
155914.391000 496944.375000 -2.355000 0
155914.250000 496943.875000 -3.503000 0
155914.156000 496943.531000 -3.370000 0
155914.063000 496943.156000 -3.372000 0
155913.953000 496942.750000 -3.437000 0
155913.859000 496942.344000 -3.401000 0
155913.750000 496941.938000 -3.411000 0
155913.656000 496941.563000 -3.470000 0
155913.547000 496941.156000 -3.430000 0
155913.453000 496940.813000 -3.391000 0
155913.359000 496940.406000 -3.407000 0
155913.250000 496940.031000 -3.410000 0
155913.141000 496939.625000 -3.471000 0
155913.063000 496939.281000 -3.423000 0
155912.953000 496938.875000 -3.514000 0
155912.844000 496938.438000 -3.552000 0
155912.750000 496938.094000 -3.495000 0
155912.656000 496937.750000 -3.471000 0
155912.547000 496937.313000 -3.476000 0
155912.453000 496936.969000 -3.463000 0
155912.344000 496936.563000 -3.496000 0
155912.250000 496936.156000 -3.460000 0
155912.156000 496935.813000 -3.403000 0
155912.063000 496935.469000 -3.393000 0
155911.953000 496935.063000 -3.362000 0
155911.844000 496934.625000 -3.413000 0
155911.750000 496934.250000 -3.409000 0
155911.641000 496933.844000 -3.411000 0
155911.531000 496933.438000 -3.393000 0
155911.438000 496933.063000 -3.393000 0
155911.344000 496932.719000 -3.416000 0
155911.234000 496932.281000 -3.465000 0
155911.141000 496931.938000 -3.326000 0
155911.031000 496931.531000 -3.404000 0
155910.922000 496931.094000 -3.526000 0
155910.813000 496930.656000 -3.570000 0
155910.719000 496930.344000 -3.460000 0
155910.766000 496930.500000 -2.209000 1
155910.609000 496929.875000 -3.556000 0
155910.750000 496930.375000 -1.575000 0
155910.516000 496929.500000 -3.526000 0
155910.422000 496929.156000 -3.444000 0
155910.484000 496929.438000 -2.035000 0
155910.313000 496928.781000 -3.467000 0
155910.109000 496927.969000 -3.507000 0
155910.000000 496927.563000 -3.570000 0
155915.453000 496950.000000 -3.411000 0
155915.344000 496949.563000 -3.478000 0
155915.406000 496949.813000 -2.118000 1
155915.234000 496949.188000 -3.572000 0
155915.375000 496949.688000 -1.530000 1
155915.141000 496948.813000 -3.510000 0
155915.031000 496948.406000 -3.473000 0
155914.938000 496948.063000 -3.460000 0
155914.844000 496947.656000 -3.451000 0
155914.734000 496947.250000 -3.417000 0
155914.641000 496946.875000 -3.438000 0
155914.547000 496946.500000 -3.479000 0
155914.453000 496946.156000 -3.404000 0
155914.359000 496945.813000 -3.281000 0
155914.266000 496945.406000 -3.339000 0
155914.141000 496944.969000 -3.431000 0
155914.047000 496944.594000 -3.404000 0
155913.953000 496944.219000 -3.430000 0
155913.859000 496943.844000 -3.300000 0
155913.734000 496943.406000 -3.420000 0
155913.641000 496943.031000 -3.459000 0
155913.547000 496942.656000 -3.433000 0
155913.438000 496942.250000 -3.428000 0
155913.344000 496941.875000 -3.443000 0
155913.250000 496941.531000 -3.440000 0
155913.141000 496941.125000 -3.409000 0
155913.047000 496940.781000 -3.409000 0
155912.953000 496940.406000 -3.421000 0
155912.844000 496939.969000 -3.462000 0
155912.750000 496939.625000 -3.400000 0
155912.641000 496939.188000 -3.500000 0
155912.547000 496938.875000 -3.409000 0
155912.422000 496938.375000 -3.564000 0
155912.328000 496938.000000 -3.537000 0
155912.234000 496937.656000 -3.527000 0
155912.141000 496937.250000 -3.477000 0
155912.047000 496936.906000 -3.438000 0
155911.938000 496936.500000 -3.479000 0
155911.828000 496936.094000 -3.468000 0
155911.734000 496935.719000 -3.431000 0
155911.641000 496935.375000 -3.337000 0
155911.547000 496935.000000 -3.315000 0
155911.422000 496934.500000 -3.486000 0
155911.328000 496934.156000 -3.468000 0
155911.219000 496933.750000 -3.514000 0
155911.125000 496933.375000 -3.429000 0
155911.031000 496933.031000 -3.420000 0
155910.938000 496932.656000 -3.363000 0
155910.813000 496932.219000 -3.409000 0
155910.719000 496931.813000 -3.398000 0
155910.797000 496932.125000 -1.906000 0
155910.609000 496931.375000 -3.556000 0
155910.500000 496930.969000 -3.587000 0
155910.406000 496930.656000 -3.453000 0
155910.297000 496930.219000 -3.526000 0
155910.313000 496930.281000 -2.572000 1
155910.219000 496929.906000 -3.385000 0
155910.031000 496929.156000 -3.368000 0
155910.109000 496929.500000 -1.804000 0
155909.922000 496928.781000 -3.393000 0
155909.719000 496928.031000 -3.353000 0
155909.641000 496927.688000 -3.285000 0
155914.922000 496949.656000 -3.465000 0
155915.000000 496949.969000 -1.873000 1
155914.813000 496949.219000 -3.586000 0
155914.875000 496949.500000 -2.132000 1
155914.719000 496948.875000 -3.531000 0
155914.625000 496948.531000 -3.444000 0
155914.531000 496948.156000 -3.443000 0
155914.438000 496947.781000 -3.437000 0
155914.328000 496947.406000 -3.348000 0
155914.234000 496947.063000 -3.308000 0
155914.141000 496946.656000 -3.359000 0
155914.031000 496946.219000 -3.411000 0
155913.922000 496945.844000 -3.364000 0
155914.047000 496946.281000 -1.566000 0
155913.828000 496945.469000 -3.396000 0
155913.734000 496945.094000 -3.362000 0
155913.625000 496944.656000 -3.431000 0
155913.531000 496944.313000 -3.424000 0
155913.422000 496943.906000 -3.460000 0
155913.313000 496943.500000 -3.473000 0
155913.234000 496943.156000 -3.433000 0
155913.125000 496942.781000 -3.477000 0
155913.031000 496942.375000 -3.439000 0
155912.922000 496942.000000 -3.464000 0
155912.844000 496941.656000 -3.417000 0
155912.734000 496941.281000 -3.369000 0
155912.641000 496940.875000 -3.374000 0
155912.531000 496940.500000 -3.389000 0
155912.438000 496940.094000 -3.410000 0
155912.328000 496939.719000 -3.347000 0
155912.234000 496939.344000 -3.441000 0
155912.125000 496938.906000 -3.518000 0
155912.016000 496938.500000 -3.533000 0
155911.906000 496938.094000 -3.523000 0
155911.813000 496937.750000 -3.466000 0
155911.703000 496937.313000 -3.473000 0
155911.609000 496936.969000 -3.456000 0
155911.516000 496936.563000 -3.517000 0
155911.422000 496936.250000 -3.370000 0
155911.422000 496936.188000 -2.584000 0
155911.313000 496935.844000 -3.382000 0
155911.219000 496935.438000 -3.414000 0
155911.109000 496935.063000 -3.464000 0
155911.016000 496934.656000 -3.383000 0
155910.906000 496934.250000 -3.462000 0
155910.797000 496933.844000 -3.500000 0
155910.703000 496933.438000 -3.463000 0
155910.594000 496933.063000 -3.478000 0
155910.500000 496932.688000 -3.465000 0
155910.406000 496932.313000 -3.392000 0
155910.297000 496931.906000 -3.469000 0
155910.203000 496931.531000 -3.549000 0
155910.094000 496931.125000 -3.527000 0
155910.000000 496930.781000 -3.473000 0
155910.016000 496930.844000 -2.478000 1
155909.906000 496930.406000 -3.458000 0
155910.063000 496931.031000 -1.279000 0
155909.922000 496930.469000 -2.457000 1
155909.859000 496930.250000 -2.089000 1
155909.250000 496927.906000 -2.126000 0
155909.125000 496927.406000 -3.239000 0
155914.578000 496949.813000 -3.512000 0
155914.469000 496949.406000 -3.530000 0
155914.516000 496949.594000 -2.201000 1
155914.375000 496949.031000 -3.501000 0
155914.266000 496948.656000 -3.483000 0
155914.172000 496948.250000 -3.479000 0
155914.078000 496947.906000 -3.431000 0
155913.969000 496947.500000 -3.445000 0
155913.875000 496947.125000 -3.406000 0
155913.781000 496946.750000 -3.404000 0
155913.672000 496946.375000 -3.433000 0
155913.578000 496946.000000 -3.330000 0
155913.484000 496945.625000 -3.333000 0
155913.391000 496945.281000 -3.378000 0
155913.281000 496944.875000 -3.365000 0
155913.188000 496944.469000 -3.429000 0
155913.078000 496944.063000 -3.517000 0
155912.969000 496943.688000 -3.470000 0
155912.875000 496943.313000 -3.480000 0
155912.781000 496942.906000 -3.520000 0
155912.688000 496942.563000 -3.431000 0
155912.578000 496942.156000 -3.423000 0
155912.469000 496941.750000 -3.464000 0
155912.375000 496941.406000 -3.466000 0
155912.281000 496941.063000 -3.359000 0
155912.172000 496940.625000 -3.448000 0
155912.094000 496940.281000 -3.363000 0
155911.969000 496939.844000 -3.392000 0
155911.859000 496939.406000 -3.489000 0
155911.766000 496939.031000 -3.471000 0
155911.656000 496938.625000 -3.505000 0
155911.547000 496938.219000 -3.593000 0
155911.766000 496939.031000 -0.966000 0
155911.469000 496937.875000 -3.534000 0
155911.359000 496937.500000 -3.511000 0
155911.250000 496937.031000 -3.563000 0
155911.156000 496936.688000 -3.558000 0
155911.063000 496936.313000 -3.494000 0
