147294.672000 494819.531000 -3.350000 0
147294.828000 494819.875000 -3.335000 0
147294.969000 494820.156000 -3.318000 0
147295.094000 494820.406000 -3.417000 0
147295.234000 494820.719000 -3.339000 0
147295.422000 494821.156000 -3.107000 0
147295.531000 494821.344000 -3.311000 0
147295.656000 494821.625000 -3.345000 0
147295.797000 494821.875000 -3.473000 0
147295.969000 494822.250000 -3.410000 0
147296.094000 494822.531000 -3.352000 0
147296.219000 494822.781000 -3.449000 0
147296.359000 494823.094000 -3.434000 0
147296.500000 494823.375000 -3.465000 0
147296.625000 494823.625000 -3.511000 0
147296.781000 494823.938000 -3.402000 0
147296.937000 494824.281000 -3.346000 0
147297.094000 494824.625000 -3.341000 0
147297.234000 494824.906000 -3.306000 0
147297.344000 494825.156000 -3.339000 0
147297.484000 494825.438000 -3.435000 0
147297.641000 494825.750000 -3.369000 0
147297.781000 494826.063000 -3.343000 0
147297.906000 494826.313000 -3.426000 0
147298.047000 494826.625000 -3.332000 0
147298.187000 494826.906000 -3.446000 0
147298.328000 494827.219000 -3.431000 0
147298.484000 494827.531000 -3.334000 0
147298.609000 494827.813000 -3.415000 0
147298.766000 494828.125000 -3.420000 0
147298.922000 494828.469000 -3.328000 0
147299.047000 494828.688000 -3.406000 0
147299.203000 494829.031000 -3.384000 0
147299.344000 494829.344000 -3.377000 0
147299.469000 494829.594000 -3.400000 0
147299.609000 494829.875000 -3.393000 0
147299.750000 494830.188000 -3.366000 0
147299.906000 494830.500000 -3.441000 0
147300.047000 494830.813000 -3.320000 0
147300.187000 494831.125000 -3.313000 0
147300.312000 494831.375000 -3.394000 0
147300.469000 494831.719000 -3.340000 0
147300.594000 494831.969000 -3.328000 0
147300.766000 494832.344000 -3.143000 0
147300.906000 494832.625000 -3.265000 0
147301.031000 494832.875000 -3.418000 0
147301.297000 494833.594000 -2.473000 0
147301.172000 494833.188000 -3.384000 0
147301.312000 494833.469000 -3.410000 0
147301.469000 494833.813000 -3.358000 0
147301.609000 494834.125000 -3.311000 0
147301.734000 494834.344000 -3.387000 0
147301.859000 494834.625000 -3.392000 0
147302.000000 494834.938000 -3.368000 0
147302.156000 494835.250000 -3.286000 0
147302.297000 494835.531000 -3.267000 0
147302.422000 494835.813000 -3.275000 0
147302.562000 494836.094000 -3.285000 0
147302.703000 494836.406000 -3.233000 0
147293.047000 494815.750000 -3.469000 0
147293.187000 494816.063000 -3.377000 0
147293.328000 494816.344000 -3.368000 0
147293.469000 494816.656000 -3.455000 0
147293.641000 494817.000000 -3.348000 0
147293.781000 494817.344000 -3.158000 0
147293.953000 494817.719000 -2.984000 0
147294.078000 494817.969000 -3.079000 0
147294.219000 494818.281000 -3.068000 0
147294.344000 494818.500000 -3.165000 0
147294.469000 494818.781000 -3.262000 0
147294.594000 494819.031000 -3.385000 0
147294.719000 494819.281000 -3.450000 0
147294.875000 494819.625000 -3.332000 0
147295.031000 494819.906000 -3.359000 0
147295.187000 494820.281000 -3.299000 0
147295.328000 494820.563000 -3.332000 0
147295.453000 494820.813000 -3.361000 0
147295.625000 494821.188000 -3.187000 0
147295.734000 494821.375000 -3.454000 0
147295.859000 494821.656000 -3.464000 0
147295.984000 494821.906000 -3.535000 0
147296.141000 494822.219000 -3.500000 0
147296.297000 494822.563000 -3.417000 0
147296.437000 494822.875000 -3.432000 0
147296.562000 494823.125000 -3.436000 0
147296.703000 494823.406000 -3.476000 0
147296.844000 494823.719000 -3.483000 0
147296.984000 494824.031000 -3.410000 0
147297.125000 494824.313000 -3.370000 0
147297.266000 494824.594000 -3.473000 0
147297.422000 494824.969000 -3.269000 0
147297.562000 494825.219000 -3.424000 0
147297.687000 494825.500000 -3.419000 0
147297.828000 494825.813000 -3.370000 0
147297.969000 494826.094000 -3.472000 0
147298.125000 494826.406000 -3.436000 0
147298.266000 494826.688000 -3.466000 0
147298.375000 494826.938000 -3.561000 0
147298.562000 494827.313000 -3.393000 0
147298.703000 494827.625000 -3.400000 0
147298.828000 494827.906000 -3.388000 0
147298.969000 494828.188000 -3.398000 0
147299.125000 494828.500000 -3.419000 0
147299.250000 494828.750000 -3.492000 0
147299.391000 494829.031000 -3.481000 0
147299.625000 494829.656000 -2.806000 0
147299.531000 494829.375000 -3.466000 0
147299.781000 494829.969000 -2.747000 0
147299.672000 494829.656000 -3.492000 0
147299.828000 494829.969000 -3.437000 0
147299.953000 494830.250000 -3.408000 0
147300.094000 494830.563000 -3.435000 0
147300.266000 494830.938000 -3.314000 0
147300.406000 494831.188000 -3.372000 0
147300.531000 494831.469000 -3.418000 0
147300.703000 494831.844000 -3.318000 0
147300.859000 494832.188000 -3.262000 0
147301.000000 494832.469000 -3.220000 0
147301.094000 494832.656000 -3.380000 0
147301.234000 494832.906000 -3.459000 0
147301.359000 494833.219000 -3.466000 0
147301.500000 494833.500000 -3.442000 0
147301.656000 494833.813000 -3.344000 0
147301.797000 494834.125000 -3.340000 0
147301.922000 494834.375000 -3.406000 0
147302.047000 494834.656000 -3.429000 0
147302.172000 494834.906000 -3.405000 0
147302.328000 494835.219000 -3.415000 0
147302.484000 494835.563000 -3.372000 0
147302.609000 494835.813000 -3.414000 0
147302.734000 494836.094000 -3.373000 0
147302.891000 494836.406000 -3.316000 0
147293.094000 494815.719000 -3.424000 0
147293.250000 494816.031000 -3.387000 0
147293.375000 494816.281000 -3.364000 0
147293.516000 494816.594000 -3.432000 0
147293.672000 494816.906000 -3.339000 0
147293.859000 494817.375000 -3.036000 0
147293.984000 494817.625000 -3.047000 0
147294.141000 494817.969000 -2.977000 0
147294.250000 494818.156000 -3.241000 0
147294.406000 494818.469000 -3.229000 0
147294.516000 494818.719000 -3.344000 0
147294.656000 494818.969000 -3.426000 0
147294.828000 494819.375000 -3.247000 0
147294.969000 494819.625000 -3.324000 0
147295.078000 494819.875000 -3.406000 0
147295.219000 494820.188000 -3.341000 0
147295.375000 494820.500000 -3.305000 0
147295.516000 494820.813000 -3.320000 0
147295.656000 494821.094000 -3.304000 0
147295.797000 494821.375000 -3.376000 0
147295.922000 494821.656000 -3.429000 0
147296.062000 494821.906000 -3.501000 0
147296.203000 494822.250000 -3.422000 0
147296.344000 494822.531000 -3.365000 0
147296.484000 494822.813000 -3.409000 0
147296.625000 494823.125000 -3.427000 0
147296.750000 494823.375000 -3.475000 0
147296.891000 494823.688000 -3.443000 0
147297.062000 494824.031000 -3.424000 0
147297.187000 494824.313000 -3.378000 0
147297.328000 494824.594000 -3.442000 0
147297.484000 494824.906000 -3.385000 0
147297.625000 494825.219000 -3.427000 0
147297.766000 494825.531000 -3.366000 0
147297.906000 494825.813000 -3.364000 0
147298.047000 494826.094000 -3.425000 0
147298.187000 494826.406000 -3.438000 0
147298.328000 494826.688000 -3.440000 0
147298.453000 494826.938000 -3.493000 0
147298.609000 494827.250000 -3.468000 0
147298.750000 494827.594000 -3.444000 0
147298.906000 494827.906000 -3.417000 0
147299.031000 494828.156000 -3.413000 0
147299.172000 494828.469000 -3.365000 0
147299.297000 494828.719000 -3.483000 0
147299.453000 494829.031000 -3.456000 0
147299.594000 494829.344000 -3.472000 0
147299.734000 494829.656000 -3.424000 0
147299.891000 494829.969000 -3.438000 0
147300.047000 494830.313000 -3.405000 0
147300.187000 494830.563000 -3.392000 0
147300.344000 494830.938000 -3.275000 0
147300.484000 494831.219000 -3.296000 0
147300.594000 494831.438000 -3.385000 0
147300.797000 494831.969000 -2.837000 0
147300.719000 494831.719000 -3.435000 0
147300.859000 494832.000000 -3.342000 0
147301.047000 494832.438000 -3.165000 0
147301.141000 494832.625000 -3.357000 0
147301.266000 494832.844000 -3.427000 0
147301.391000 494833.094000 -3.482000 0
147301.531000 494833.406000 -3.414000 0
147301.703000 494833.781000 -3.332000 0
147301.828000 494834.031000 -3.353000 0
147301.969000 494834.313000 -3.361000 0
147302.109000 494834.625000 -3.347000 0
147302.234000 494834.906000 -3.341000 0
147302.453000 494835.469000 -2.748000 0
147302.359000 494835.156000 -3.410000 0
147302.516000 494835.469000 -3.360000 0
147302.656000 494835.781000 -3.411000 0
147302.797000 494836.094000 -3.328000 0
147302.922000 494836.313000 -3.394000 0
147303.078000 494836.688000 -3.270000 0
147293.031000 494815.063000 -3.529000 0
147293.187000 494815.438000 -3.335000 0
147293.328000 494815.719000 -3.326000 0
147293.484000 494816.031000 -3.280000 0
147293.625000 494816.344000 -3.311000 0
147293.766000 494816.625000 -3.336000 0
147293.906000 494816.938000 -3.317000 0
147294.125000 494817.438000 -2.950000 0
147294.234000 494817.656000 -3.041000 0
147294.406000 494818.031000 -2.887000 0
147294.500000 494818.188000 -3.145000 0
147294.609000 494818.375000 -3.407000 0
147294.734000 494818.656000 -3.454000 0
147294.969000 494819.219000 -2.854000 0
147294.891000 494818.969000 -3.372000 0
147295.031000 494819.281000 -3.403000 0
147295.172000 494819.563000 -3.446000 0
147295.328000 494819.906000 -3.357000 0
147295.453000 494820.188000 -3.335000 0
147295.609000 494820.500000 -3.294000 0
147295.734000 494820.750000 -3.400000 0
147295.859000 494821.031000 -3.437000 0
147296.016000 494821.344000 -3.369000 0
147296.141000 494821.594000 -3.432000 0
147296.281000 494821.875000 -3.544000 0
147296.453000 494822.250000 -3.350000 0
147296.578000 494822.500000 -3.396000 0
147296.719000 494822.813000 -3.430000 0
147296.875000 494823.156000 -3.379000 0
147297.016000 494823.438000 -3.455000 0
147297.141000 494823.688000 -3.419000 0
147297.297000 494824.031000 -3.341000 0
147297.437000 494824.313000 -3.447000 0
147297.578000 494824.625000 -3.388000 0
147297.703000 494824.875000 -3.446000 0
147297.875000 494825.250000 -3.298000 0
147298.016000 494825.563000 -3.343000 0
147298.141000 494825.813000 -3.431000 0
147298.422000 494826.531000 -2.411000 0
147298.281000 494826.094000 -3.425000 0
147298.406000 494826.375000 -3.415000 0
147298.562000 494826.656000 -3.494000 0
147298.703000 494826.969000 -3.406000 0
147298.844000 494827.313000 -3.352000 0
147298.984000 494827.563000 -3.427000 0
147299.141000 494827.875000 -3.473000 0
147299.297000 494828.219000 -3.398000 0
147299.422000 494828.469000 -3.436000 0
147299.562000 494828.813000 -3.415000 0
147299.703000 494829.063000 -3.464000 0
147299.844000 494829.375000 -3.444000 0
147299.969000 494829.656000 -3.421000 0
147300.109000 494829.938000 -3.403000 0
147300.250000 494830.219000 -3.445000 0
147300.406000 494830.563000 -3.331000 0
147300.547000 494830.875000 -3.279000 0
147300.672000 494831.125000 -3.322000 0
147300.797000 494831.375000 -3.401000 0
147300.922000 494831.656000 -3.429000 0
147301.078000 494831.969000 -3.331000 0
147301.219000 494832.250000 -3.395000 0
147301.359000 494832.563000 -3.365000 0
147301.484000 494832.844000 -3.404000 0
147301.625000 494833.094000 -3.409000 0
147301.766000 494833.406000 -3.346000 0
147301.906000 494833.688000 -3.410000 0
147302.047000 494834.000000 -3.363000 0
147302.172000 494834.281000 -3.367000 0
147302.312000 494834.563000 -3.374000 0
147302.469000 494834.875000 -3.407000 0
147302.609000 494835.156000 -3.429000 0
147302.750000 494835.469000 -3.394000 0
147302.891000 494835.781000 -3.375000 0
147303.047000 494836.094000 -3.333000 0
147303.187000 494836.406000 -3.310000 0
147303.328000 494836.719000 -3.215000 0
147293.109000 494814.563000 -3.506000 0
147293.266000 494814.906000 -3.482000 0
147293.437000 494815.281000 -3.385000 0
147293.594000 494815.594000 -3.261000 0
147293.719000 494815.875000 -3.320000 0
147293.859000 494816.156000 -3.364000 0
147294.016000 494816.500000 -3.272000 0
147294.125000 494816.719000 -3.357000 0
147294.328000 494817.188000 -2.990000 0
147294.406000 494817.281000 -3.438000 0
147294.672000 494817.938000 -2.730000 0
147294.750000 494818.063000 -3.069000 0
147294.859000 494818.281000 -3.196000 0
147294.984000 494818.500000 -3.392000 0
147295.125000 494818.813000 -3.374000 0
147295.250000 494819.094000 -3.383000 0
147295.391000 494819.375000 -3.400000 0
147295.531000 494819.656000 -3.385000 0
147295.703000 494820.031000 -3.317000 0
147295.828000 494820.313000 -3.354000 0
147296.219000 494821.375000 -1.551000 0
147295.969000 494820.594000 -3.311000 0
147296.109000 494820.875000 -3.368000 0
147296.266000 494821.188000 -3.425000 0
147296.375000 494821.406000 -3.549000 0
147296.516000 494821.688000 -3.545000 0
147296.687000 494822.063000 -3.423000 0
147296.828000 494822.406000 -3.420000 0
147296.969000 494822.688000 -3.352000 0
147297.109000 494822.969000 -3.332000 0
147297.266000 494823.313000 -3.306000 0
147297.422000 494823.625000 -3.294000 0
147297.531000 494823.875000 -3.398000 0
147297.672000 494824.156000 -3.368000 0
147297.828000 494824.469000 -3.327000 0
147297.969000 494824.750000 -3.410000 0
147298.109000 494825.063000 -3.326000 0
147298.234000 494825.344000 -3.375000 0
147298.375000 494825.625000 -3.475000 0
147298.547000 494825.969000 -3.394000 0
147298.672000 494826.281000 -3.382000 0
147298.812000 494826.563000 -3.393000 0
147298.984000 494826.906000 -3.337000 0
147299.125000 494827.188000 -3.341000 0
147299.250000 494827.469000 -3.339000 0
147299.375000 494827.719000 -3.407000 0
147299.500000 494828.000000 -3.425000 0
147299.656000 494828.313000 -3.373000 0
147299.781000 494828.563000 -3.428000 0
147299.922000 494828.875000 -3.365000 0
147300.062000 494829.156000 -3.402000 0
147300.203000 494829.469000 -3.408000 0
147300.328000 494829.719000 -3.410000 0
147300.469000 494830.031000 -3.381000 0
147300.625000 494830.375000 -3.311000 0
147300.766000 494830.656000 -3.335000 0
147300.922000 494831.000000 -3.188000 0
147301.016000 494831.156000 -3.404000 0
147301.156000 494831.469000 -3.438000 0
147301.453000 494832.219000 -2.382000 0
147301.297000 494831.781000 -3.417000 0
147301.437000 494832.063000 -3.430000 0
147301.578000 494832.375000 -3.290000 0
147301.719000 494832.625000 -3.352000 0
147301.859000 494832.938000 -3.391000 0
147302.016000 494833.281000 -3.331000 0
147302.156000 494833.563000 -3.330000 0
147302.312000 494833.875000 -3.306000 0
147302.437000 494834.156000 -3.409000 0
147302.578000 494834.438000 -3.385000 0
147302.703000 494834.719000 -3.372000 0
147302.844000 494835.000000 -3.361000 0
147302.984000 494835.313000 -3.352000 0
147303.125000 494835.594000 -3.373000 0
147303.266000 494835.906000 -3.367000 0
147303.422000 494836.219000 -3.355000 0
147303.562000 494836.563000 -3.250000 0
147303.687000 494836.781000 -3.326000 0
147303.859000 494837.156000 -3.128000 0
147293.141000 494814.156000 -3.419000 0
147293.266000 494814.375000 -3.560000 0
147293.391000 494814.656000 -3.558000 0
147293.594000 494815.156000 -3.047000 0
147293.547000 494815.031000 -3.358000 0
147293.734000 494815.406000 -3.260000 0
147293.859000 494815.656000 -3.404000 0
147293.984000 494815.938000 -3.421000 0
147294.109000 494816.188000 -3.448000 0
147294.266000 494816.531000 -3.367000 0
147294.422000 494816.844000 -3.393000 0
147294.547000 494817.094000 -3.381000 0
147294.797000 494817.750000 -2.572000 0
147294.906000 494817.938000 -2.813000 0
147295.000000 494818.094000 -3.190000 0
147295.141000 494818.375000 -3.204000 0
147295.250000 494818.594000 -3.353000 0
147295.391000 494818.875000 -3.435000 0
147295.547000 494819.188000 -3.455000 0
147295.687000 494819.500000 -3.380000 0
147295.828000 494819.813000 -3.356000 0
147295.984000 494820.125000 -3.368000 0
147296.141000 494820.438000 -3.345000 0
147296.266000 494820.719000 -3.304000 0
147296.375000 494820.938000 -3.462000 0
147296.516000 494821.219000 -3.540000 0
147296.672000 494821.531000 -3.550000 0
147296.812000 494821.844000 -3.477000 0
147296.953000 494822.188000 -3.370000 0
147297.109000 494822.469000 -3.387000 0
147297.250000 494822.750000 -3.450000 0
147297.406000 494823.125000 -3.240000 0
147297.531000 494823.375000 -3.348000 0
147297.687000 494823.688000 -3.338000 0
147297.828000 494823.969000 -3.434000 0
147297.953000 494824.250000 -3.499000 0
147298.109000 494824.563000 -3.426000 0
147298.281000 494824.938000 -3.328000 0
147298.391000 494825.188000 -3.432000 0
147298.531000 494825.469000 -3.408000 0
147298.656000 494825.719000 -3.452000 0
147298.797000 494826.031000 -3.435000 0
147298.937000 494826.313000 -3.428000 0
147299.078000 494826.625000 -3.395000 0
147299.219000 494826.938000 -3.295000 0
147299.359000 494827.188000 -3.360000 0
147299.484000 494827.469000 -3.424000 0
147299.609000 494827.750000 -3.427000 0
147299.750000 494828.031000 -3.450000 0
147299.906000 494828.344000 -3.407000 0
147300.047000 494828.656000 -3.414000 0
147300.187000 494828.938000 -3.395000 0
147300.484000 494829.750000 -2.164000 0
147300.312000 494829.188000 -3.407000 0
147300.469000 494829.531000 -3.363000 0
147300.609000 494829.813000 -3.383000 0
147300.734000 494830.125000 -3.370000 0
147300.891000 494830.438000 -3.279000 0
147301.047000 494830.781000 -3.179000 0
147301.172000 494831.000000 -3.345000 0
147301.297000 494831.250000 -3.425000 0
147301.437000 494831.563000 -3.389000 0
147301.594000 494831.906000 -3.389000 0
147301.734000 494832.188000 -3.399000 0
147301.875000 494832.500000 -3.350000 0
147302.000000 494832.750000 -3.409000 0
147302.141000 494833.031000 -3.386000 0
147302.297000 494833.375000 -3.309000 0
147302.437000 494833.688000 -3.283000 0
147302.562000 494833.938000 -3.373000 0
147302.703000 494834.219000 -3.433000 0
147302.859000 494834.563000 -3.315000 0
147302.984000 494834.844000 -3.328000 0
147303.125000 494835.125000 -3.320000 0
147303.266000 494835.438000 -3.275000 0
147303.406000 494835.688000 -3.391000 0
147303.531000 494835.969000 -3.395000 0
147303.672000 494836.250000 -3.359000 0
147303.812000 494836.563000 -3.392000 0
147304.000000 494837.000000 -3.129000 0
147304.125000 494837.250000 -3.168000 0
147293.187000 494814.125000 -2.880000 0
147293.094000 494813.813000 -3.512000 0
147293.234000 494814.125000 -3.517000 0
147293.375000 494814.406000 -3.565000 0
147293.547000 494814.781000 -3.392000 0
147293.687000 494815.094000 -3.328000 0
147293.828000 494815.406000 -3.225000 0
147293.953000 494815.656000 -3.368000 0
147294.094000 494815.938000 -3.442000 0
147294.234000 494816.219000 -3.419000 0
147294.375000 494816.531000 -3.373000 0
147294.531000 494816.844000 -3.437000 0
147294.687000 494817.188000 -3.344000 0
147294.906000 494817.750000 -2.773000 0
147294.969000 494817.781000 -3.320000 0
147295.141000 494818.156000 -3.208000 0
147295.281000 494818.438000 -3.237000 0
147295.406000 494818.688000 -3.325000 0
147295.531000 494818.938000 -3.423000 0
147295.672000 494819.250000 -3.416000 0
147295.828000 494819.563000 -3.339000 0
147295.969000 494819.875000 -3.278000 0
147296.125000 494820.219000 -3.201000 0
147296.266000 494820.531000 -3.209000 0
147296.391000 494820.750000 -3.380000 0
147296.500000 494821.000000 -3.456000 0
147296.641000 494821.250000 -3.538000 0
147296.797000 494821.594000 -3.466000 0
147296.953000 494821.938000 -3.400000 0
147297.094000 494822.250000 -3.359000 0
147297.234000 494822.531000 -3.425000 0
147297.391000 494822.844000 -3.390000 0
147297.562000 494823.219000 -3.268000 0
147297.687000 494823.500000 -3.277000 0
147297.812000 494823.750000 -3.405000 0
147297.953000 494824.063000 -3.371000 0
147298.078000 494824.281000 -3.474000 0
147298.219000 494824.594000 -3.376000 0
147298.359000 494824.875000 -3.358000 0
147298.500000 494825.188000 -3.400000 0
147298.641000 494825.469000 -3.451000 0
147298.766000 494825.719000 -3.459000 0
147298.906000 494826.031000 -3.392000 0
147299.031000 494826.313000 -3.422000 0
147299.187000 494826.625000 -3.426000 0
147299.344000 494826.969000 -3.304000 0
147299.453000 494827.188000 -3.382000 0
147299.594000 494827.469000 -3.414000 0
147299.734000 494827.781000 -3.441000 0
147299.875000 494828.063000 -3.402000 0
147300.016000 494828.344000 -3.393000 0
147300.172000 494828.688000 -3.356000 0
147300.297000 494828.969000 -3.400000 0
147300.437000 494829.250000 -3.356000 0
147300.578000 494829.563000 -3.292000 0
147300.719000 494829.844000 -3.405000 0
147300.875000 494830.188000 -3.339000 0
147301.031000 494830.531000 -3.219000 0
147301.172000 494830.813000 -3.227000 0
147301.391000 494831.375000 -2.654000 0
147301.297000 494831.063000 -3.377000 0
147301.437000 494831.344000 -3.396000 0
147301.562000 494831.594000 -3.405000 0
147301.687000 494831.875000 -3.381000 0
147301.859000 494832.250000 -3.275000 0
147302.000000 494832.563000 -3.346000 0
147302.125000 494832.781000 -3.435000 0
147302.266000 494833.094000 -3.327000 0
147302.422000 494833.438000 -3.267000 0
147302.562000 494833.750000 -3.304000 0
147302.687000 494833.969000 -3.387000 0
147302.812000 494834.219000 -3.382000 0
147302.969000 494834.563000 -3.343000 0
147303.422000 494835.906000 -1.012000 0
147303.109000 494834.875000 -3.277000 0
147303.266000 494835.188000 -3.233000 0
147303.391000 494835.469000 -3.275000 0
147303.516000 494835.719000 -3.386000 0
147303.672000 494836.063000 -3.347000 0
147303.812000 494836.344000 -3.373000 0
147303.984000 494836.750000 -3.085000 0
147304.125000 494837.031000 -3.115000 0
147304.266000 494837.313000 -3.225000 0
147293.062000 494813.344000 -3.538000 0
147293.203000 494813.625000 -3.564000 0
147293.328000 494813.906000 -3.619000 0
147293.484000 494814.250000 -3.480000 0
147293.656000 494814.656000 -3.268000 0
147293.797000 494814.906000 -3.448000 0
147293.937000 494815.188000 -3.391000 0
147294.078000 494815.531000 -3.315000 0
147294.219000 494815.813000 -3.404000 0
147294.375000 494816.125000 -3.426000 0
147294.500000 494816.406000 -3.396000 0
147294.641000 494816.688000 -3.434000 0
147294.828000 494817.094000 -3.232000 0
147294.922000 494817.250000 -3.508000 0
147295.156000 494817.844000 -2.811000 0
147295.281000 494818.125000 -2.892000 0
147295.219000 494817.906000 -3.387000 0
147295.375000 494818.219000 -3.356000 0
147295.625000 494818.875000 -2.609000 0
147295.500000 494818.500000 -3.429000 0
147295.641000 494818.781000 -3.450000 0
147295.766000 494819.031000 -3.447000 0
147295.922000 494819.375000 -3.377000 0
147296.078000 494819.750000 -3.274000 0
147296.219000 494820.031000 -3.277000 0
147296.359000 494820.313000 -3.344000 0
147296.516000 494820.625000 -3.365000 0
147296.641000 494820.844000 -3.547000 0
147296.781000 494821.156000 -3.534000 0
147296.937000 494821.500000 -3.409000 0
147297.094000 494821.844000 -3.361000 0
147297.234000 494822.156000 -3.289000 0
147297.359000 494822.406000 -3.306000 0
147297.469000 494822.594000 -3.473000 0
147297.625000 494822.938000 -3.391000 0
147297.797000 494823.344000 -3.225000 0
147297.906000 494823.531000 -3.365000 0
147298.016000 494823.781000 -3.440000 0
147298.156000 494824.063000 -3.432000 0
147298.297000 494824.344000 -3.507000 0
147298.437000 494824.656000 -3.434000 0
147298.578000 494824.969000 -3.430000 0
147298.734000 494825.313000 -3.300000 0
147298.859000 494825.531000 -3.443000 0
147299.000000 494825.813000 -3.452000 0
147299.141000 494826.125000 -3.423000 0
147299.281000 494826.438000 -3.344000 0
147299.453000 494826.813000 -3.300000 0
147299.562000 494827.063000 -3.325000 0
147299.687000 494827.281000 -3.378000 0
147299.844000 494827.594000 -3.369000 0
147300.000000 494827.938000 -3.367000 0
147300.141000 494828.219000 -3.368000 0
147300.281000 494828.531000 -3.380000 0
147300.406000 494828.813000 -3.410000 0
147300.578000 494829.156000 -3.358000 0
147300.703000 494829.406000 -3.369000 0
147300.828000 494829.656000 -3.381000 0
147300.969000 494829.969000 -3.344000 0
147301.125000 494830.281000 -3.371000 0
147301.250000 494830.563000 -3.422000 0
147301.406000 494830.906000 -3.341000 0
147301.531000 494831.188000 -3.367000 0
147301.766000 494831.750000 -2.720000 0
147301.672000 494831.438000 -3.417000 0
147301.828000 494831.781000 -3.337000 0
147301.953000 494832.063000 -3.286000 0
147302.078000 494832.313000 -3.335000 0
147302.234000 494832.625000 -3.402000 0
147302.375000 494832.938000 -3.320000 0
147302.500000 494833.219000 -3.353000 0
147302.656000 494833.563000 -3.311000 0
147302.797000 494833.813000 -3.381000 0
147302.922000 494834.031000 -3.516000 0
147303.078000 494834.438000 -3.320000 0
147303.219000 494834.719000 -3.379000 0
147303.687000 494836.063000 -1.036000 0
147303.375000 494835.031000 -3.311000 0
147303.531000 494835.375000 -3.231000 0
147303.656000 494835.625000 -3.322000 0
147303.781000 494835.875000 -3.396000 0
147303.922000 494836.188000 -3.417000 0
147304.094000 494836.563000 -3.157000 0
147304.219000 494836.813000 -3.282000 0
147304.359000 494837.125000 -3.238000 0
147304.516000 494837.438000 -3.262000 0
147293.156000 494813.063000 -3.506000 0
147293.281000 494813.313000 -3.493000 0
147293.437000 494813.656000 -3.537000 0
147293.578000 494813.906000 -3.647000 0
147293.719000 494814.219000 -3.598000 0
147293.844000 494814.500000 -3.613000 0
147294.000000 494814.813000 -3.630000 0
147294.187000 494815.250000 -3.352000 0
147294.312000 494815.500000 -3.367000 0
147294.453000 494815.781000 -3.383000 0
147294.594000 494816.094000 -3.398000 0
147294.766000 494816.438000 -3.328000 0
147294.875000 494816.688000 -3.414000 0
147295.031000 494817.031000 -3.324000 0
147295.156000 494817.281000 -3.449000 0
147295.328000 494817.625000 -3.336000 0
147295.437000 494817.875000 -3.424000 0
147295.594000 494818.156000 -3.412000 0
147295.734000 494818.469000 -3.479000 0
147295.891000 494818.781000 -3.484000 0
147296.031000 494819.094000 -3.413000 0
147296.172000 494819.406000 -3.402000 0
147296.328000 494819.750000 -3.364000 0
147296.469000 494820.031000 -3.408000 0
147296.594000 494820.313000 -3.370000 0
147296.734000 494820.563000 -3.377000 0
147296.859000 494820.844000 -3.495000 0
147296.984000 494821.094000 -3.518000 0
147297.141000 494821.469000 -3.396000 0
147297.281000 494821.750000 -3.350000 0
147297.422000 494822.031000 -3.365000 0
147297.562000 494822.344000 -3.362000 0
147297.687000 494822.563000 -3.421000 0
147297.812000 494822.844000 -3.473000 0
147298.000000 494823.250000 -3.299000 0
147298.125000 494823.500000 -3.423000 0
147298.234000 494823.750000 -3.449000 0
147298.375000 494824.031000 -3.383000 0
147298.516000 494824.313000 -3.521000 0
147298.656000 494824.625000 -3.488000 0
147298.812000 494824.969000 -3.355000 0
147298.937000 494825.250000 -3.341000 0
147299.078000 494825.500000 -3.443000 0
147299.234000 494825.813000 -3.406000 0
147299.359000 494826.094000 -3.471000 0
147299.516000 494826.438000 -3.338000 0
147299.656000 494826.750000 -3.410000 0
147299.797000 494827.031000 -3.424000 0
147299.953000 494827.375000 -3.320000 0
147300.078000 494827.625000 -3.360000 0
147300.219000 494827.906000 -3.369000 0
147300.359000 494828.188000 -3.367000 0
147300.500000 494828.531000 -3.315000 0
147300.641000 494828.781000 -3.380000 0
147300.797000 494829.125000 -3.364000 0
147300.937000 494829.406000 -3.373000 0
147301.062000 494829.688000 -3.344000 0
147301.203000 494829.969000 -3.387000 0
147301.328000 494830.219000 -3.425000 0
147301.469000 494830.500000 -3.455000 0
147301.625000 494830.875000 -3.330000 0
147301.734000 494831.094000 -3.409000 0
147301.906000 494831.438000 -3.367000 0
147302.062000 494831.750000 -3.350000 0
147302.187000 494832.031000 -3.344000 0
147302.312000 494832.313000 -3.346000 0
147302.469000 494832.656000 -3.350000 0
147302.625000 494832.969000 -3.312000 0
147302.750000 494833.219000 -3.349000 0
147302.891000 494833.500000 -3.357000 0
147303.031000 494833.781000 -3.474000 0
147303.312000 494834.563000 -2.423000 0
147303.172000 494834.063000 -3.503000 0
147303.328000 494834.438000 -3.264000 0
147303.453000 494834.688000 -3.329000 0
147303.734000 494835.438000 -2.400000 0
147303.609000 494835.031000 -3.314000 0
147303.750000 494835.313000 -3.270000 0
147303.875000 494835.594000 -3.350000 0
147304.000000 494835.844000 -3.356000 0
147304.156000 494836.156000 -3.373000 0
147304.312000 494836.531000 -3.229000 0
147304.453000 494836.813000 -3.217000 0
147304.562000 494837.031000 -3.369000 0
147304.734000 494837.406000 -3.272000 0
147304.906000 494837.750000 -3.160000 0
147293.078000 494812.594000 -3.384000 0
147293.219000 494812.875000 -3.447000 0
147293.359000 494813.188000 -3.515000 0
147293.500000 494813.469000 -3.506000 0
147293.625000 494813.719000 -3.557000 0
147293.766000 494814.000000 -3.609000 0
147293.906000 494814.313000 -3.604000 0
147294.062000 494814.625000 -3.574000 0
147294.203000 494814.938000 -3.489000 0
147294.391000 494815.375000 -3.277000 0
147294.500000 494815.594000 -3.410000 0
147294.672000 494815.938000 -3.287000 0
147294.781000 494816.156000 -3.379000 0
147294.953000 494816.563000 -3.251000 0
147295.094000 494816.813000 -3.366000 0
147295.219000 494817.063000 -3.462000 0
147295.437000 494817.625000 -2.950000 0
147295.359000 494817.375000 -3.449000 0
147295.531000 494817.750000 -3.347000 0
147295.672000 494818.031000 -3.429000 0
147295.781000 494818.281000 -3.458000 0
147295.922000 494818.563000 -3.445000 0
147296.047000 494818.813000 -3.509000 0
147296.203000 494819.156000 -3.458000 0
147296.344000 494819.438000 -3.409000 0
147296.500000 494819.781000 -3.311000 0
147296.641000 494820.063000 -3.375000 0
147296.766000 494820.344000 -3.420000 0
147296.891000 494820.594000 -3.410000 0
147297.000000 494820.813000 -3.504000 0
147297.156000 494821.156000 -3.438000 0
147297.344000 494821.563000 -3.304000 0
147297.453000 494821.781000 -3.374000 0
147297.594000 494822.063000 -3.342000 0
147297.734000 494822.375000 -3.360000 0
147297.891000 494822.688000 -3.375000 0
147298.000000 494822.906000 -3.414000 0
147298.141000 494823.250000 -3.369000 0
147298.297000 494823.563000 -3.373000 0
147298.437000 494823.844000 -3.356000 0
147298.562000 494824.094000 -3.420000 0
147298.703000 494824.406000 -3.430000 0
147298.875000 494824.781000 -3.355000 0
147299.047000 494825.125000 -3.227000 0
147299.141000 494825.313000 -3.383000 0
147299.297000 494825.656000 -3.348000 0
147299.422000 494825.906000 -3.466000 0
147299.562000 494826.188000 -3.473000 0
147299.687000 494826.438000 -3.466000 0
147299.828000 494826.750000 -3.496000 0
147300.000000 494827.125000 -3.330000 0
147300.156000 494827.438000 -3.332000 0
147300.281000 494827.719000 -3.328000 0
147300.406000 494828.000000 -3.318000 0
147300.562000 494828.313000 -3.349000 0
147300.703000 494828.594000 -3.334000 0
147300.812000 494828.844000 -3.373000 0
147300.953000 494829.125000 -3.384000 0
147301.109000 494829.469000 -3.343000 0
147301.266000 494829.781000 -3.317000 0
147301.391000 494830.031000 -3.392000 0
147301.516000 494830.313000 -3.372000 0
147301.672000 494830.656000 -3.380000 0
147301.828000 494831.000000 -3.317000 0
147301.953000 494831.250000 -3.379000 0
147302.094000 494831.531000 -3.349000 0
147302.266000 494831.875000 -3.309000 0
147302.391000 494832.156000 -3.367000 0
147302.531000 494832.438000 -3.312000 0
147302.656000 494832.719000 -3.279000 0
147302.812000 494833.063000 -3.295000 0
147302.953000 494833.344000 -3.373000 0
147303.078000 494833.563000 -3.431000 0
147303.219000 494833.844000 -3.461000 0
147303.359000 494834.188000 -3.422000 0
147303.531000 494834.563000 -3.269000 0
147303.641000 494834.750000 -3.384000 0
147303.781000 494835.094000 -3.303000 0
147303.937000 494835.406000 -3.305000 0
147304.094000 494835.719000 -3.331000 0
147304.219000 494836.000000 -3.312000 0
147304.391000 494836.344000 -3.216000 0
147304.531000 494836.688000 -3.214000 0
147304.656000 494836.906000 -3.332000 0
147304.906000 494837.563000 -2.393000 0
147304.781000 494837.188000 -3.257000 0
147304.922000 494837.469000 -3.267000 0
147305.062000 494837.750000 -3.259000 0
147305.187000 494838.063000 -3.299000 0
147293.094000 494812.500000 -3.446000 0
147293.234000 494812.813000 -3.428000 0
147293.375000 494813.094000 -3.456000 0
147293.531000 494813.406000 -3.522000 0
147293.656000 494813.688000 -3.512000 0
147293.781000 494813.938000 -3.600000 0
147293.922000 494814.250000 -3.520000 0
147294.078000 494814.563000 -3.577000 0
147294.234000 494814.906000 -3.468000 0
147294.406000 494815.313000 -3.242000 0
147294.531000 494815.563000 -3.394000 0
147294.719000 494815.938000 -3.297000 0
147294.828000 494816.188000 -3.389000 0
147294.984000 494816.531000 -3.260000 0
147295.125000 494816.813000 -3.264000 0
147295.234000 494817.000000 -3.474000 0
147295.484000 494817.656000 -2.665000 0
147295.359000 494817.281000 -3.492000 0
147295.500000 494817.563000 -3.427000 0
147295.672000 494817.938000 -3.331000 0
147295.797000 494818.188000 -3.435000 0
147295.922000 494818.438000 -3.485000 0
147296.047000 494818.719000 -3.452000 0
147296.187000 494819.031000 -3.433000 0
147296.344000 494819.313000 -3.480000 0
147296.500000 494819.688000 -3.334000 0
147296.641000 494820.000000 -3.226000 0
147296.766000 494820.250000 -3.299000 0
147296.906000 494820.531000 -3.374000 0
147297.031000 494820.750000 -3.541000 0
147297.172000 494821.094000 -3.409000 0
147297.328000 494821.438000 -3.343000 0
147297.469000 494821.719000 -3.345000 0
147297.609000 494822.000000 -3.336000 0
147297.750000 494822.281000 -3.370000 0
147297.891000 494822.594000 -3.379000 0
147298.031000 494822.875000 -3.459000 0
147298.187000 494823.219000 -3.375000 0
147298.312000 494823.469000 -3.426000 0
147298.469000 494823.781000 -3.391000 0
147298.594000 494824.094000 -3.408000 0
147298.719000 494824.313000 -3.467000 0
147298.859000 494824.625000 -3.383000 0
147299.016000 494824.969000 -3.348000 0
147299.187000 494825.313000 -3.309000 0
147299.312000 494825.563000 -3.373000 0
147299.437000 494825.813000 -3.401000 0
147299.562000 494826.094000 -3.433000 0
147299.734000 494826.438000 -3.386000 0
147299.844000 494826.688000 -3.479000 0
147299.984000 494827.000000 -3.373000 0
147300.141000 494827.344000 -3.328000 0
147300.297000 494827.688000 -3.221000 0
147300.437000 494827.938000 -3.304000 0
147300.562000 494828.219000 -3.337000 0
147300.703000 494828.500000 -3.354000 0
147300.859000 494828.813000 -3.345000 0
147301.000000 494829.125000 -3.380000 0
147301.141000 494829.438000 -3.320000 0
147301.281000 494829.719000 -3.334000 0
147301.422000 494830.031000 -3.363000 0
147301.562000 494830.313000 -3.420000 0
147301.703000 494830.594000 -3.368000 0
147301.844000 494830.875000 -3.349000 0
147301.984000 494831.188000 -3.420000 0
147302.125000 494831.500000 -3.354000 0
147302.266000 494831.781000 -3.317000 0
147302.422000 494832.125000 -3.285000 0
147302.547000 494832.375000 -3.344000 0
147302.703000 494832.719000 -3.281000 0
147302.812000 494832.938000 -3.349000 0
147302.969000 494833.281000 -3.295000 0
147303.109000 494833.563000 -3.392000 0
147303.234000 494833.813000 -3.475000 0
147303.391000 494834.156000 -3.354000 0
147303.547000 494834.469000 -3.386000 0
147303.703000 494834.813000 -3.323000 0
147303.828000 494835.094000 -3.307000 0
147303.969000 494835.375000 -3.266000 0
147304.094000 494835.625000 -3.367000 0
147304.234000 494835.906000 -3.375000 0
147304.375000 494836.219000 -3.290000 0
147304.516000 494836.531000 -3.208000 0
147304.656000 494836.813000 -3.238000 0
147304.781000 494837.063000 -3.361000 0
147304.922000 494837.375000 -3.242000 0
147305.047000 494837.625000 -3.304000 0
147305.187000 494837.938000 -3.266000 0
147293.047000 494811.969000 -3.422000 0
147293.203000 494812.313000 -3.429000 0
147293.344000 494812.594000 -3.435000 0
147293.484000 494812.906000 -3.411000 0
147293.625000 494813.156000 -3.462000 0
147293.781000 494813.500000 -3.488000 0
147293.906000 494813.750000 -3.596000 0
147294.062000 494814.063000 -3.531000 0
147294.219000 494814.406000 -3.419000 0
147294.344000 494814.688000 -3.562000 0
147294.516000 494815.063000 -3.306000 0
147294.656000 494815.375000 -3.217000 0
147294.781000 494815.656000 -3.235000 0
147294.906000 494815.906000 -3.360000 0
147295.062000 494816.188000 -3.390000 0
147295.203000 494816.531000 -3.236000 0
147295.312000 494816.750000 -3.348000 0
147295.453000 494817.000000 -3.450000 0
147295.594000 494817.281000 -3.508000 0
147295.734000 494817.594000 -3.458000 0
147295.875000 494817.906000 -3.456000 0
147296.016000 494818.219000 -3.437000 0
147296.156000 494818.500000 -3.474000 0
147296.281000 494818.750000 -3.489000 0
147296.422000 494819.063000 -3.439000 0
147296.578000 494819.375000 -3.430000 0
147296.734000 494819.688000 -3.411000 0
147296.859000 494820.000000 -3.366000 0
147297.000000 494820.281000 -3.323000 0
147297.141000 494820.563000 -3.411000 0
147297.281000 494820.844000 -3.511000 0
147297.437000 494821.188000 -3.403000 0
147297.578000 494821.500000 -3.401000 0
147297.719000 494821.781000 -3.392000 0
147297.875000 494822.125000 -3.355000 0
147298.000000 494822.375000 -3.394000 0
147298.125000 494822.625000 -3.429000 0
147298.266000 494822.906000 -3.440000 0
147298.422000 494823.250000 -3.417000 0
147298.562000 494823.563000 -3.369000 0
147298.719000 494823.906000 -3.302000 0
147298.844000 494824.125000 -3.422000 0
147298.984000 494824.469000 -3.364000 0
147299.109000 494824.688000 -3.492000 0
147299.266000 494825.063000 -3.314000 0
147299.406000 494825.313000 -3.338000 0
147299.531000 494825.594000 -3.439000 0
147299.672000 494825.875000 -3.431000 0
147299.812000 494826.188000 -3.396000 0
147299.969000 494826.500000 -3.382000 0
147300.094000 494826.750000 -3.461000 0
147300.250000 494827.094000 -3.422000 0
147300.391000 494827.406000 -3.351000 0
147300.562000 494827.750000 -3.298000 0
147300.687000 494828.031000 -3.346000 0
147300.828000 494828.313000 -3.331000 0
147300.969000 494828.594000 -3.344000 0
147301.109000 494828.906000 -3.376000 0
147301.234000 494829.188000 -3.381000 0
147301.391000 494829.500000 -3.345000 0
147301.531000 494829.781000 -3.350000 0
147301.672000 494830.094000 -3.365000 0
147301.797000 494830.344000 -3.465000 0
147301.953000 494830.656000 -3.337000 0
147302.078000 494830.938000 -3.364000 0
147302.219000 494831.250000 -3.384000 0
147302.391000 494831.594000 -3.317000 0
147302.531000 494831.906000 -3.244000 0
147302.672000 494832.188000 -3.281000 0
147302.828000 494832.531000 -3.285000 0
147302.969000 494832.844000 -3.273000 0
147303.094000 494833.094000 -3.334000 0
147303.234000 494833.375000 -3.312000 0
147303.359000 494833.625000 -3.449000 0
147303.641000 494834.406000 -2.318000 0
147303.500000 494833.906000 -3.411000 0
147303.609000 494834.156000 -3.461000 0
147303.766000 494834.469000 -3.355000 0
147303.922000 494834.813000 -3.344000 0
147304.062000 494835.125000 -3.292000 0
147304.187000 494835.406000 -3.258000 0
147304.312000 494835.656000 -3.330000 0
147304.453000 494835.938000 -3.281000 0
147304.703000 494836.594000 -2.551000 0
147304.609000 494836.250000 -3.283000 0
147304.750000 494836.563000 -3.240000 0
147304.875000 494836.813000 -3.305000 0
147305.000000 494837.094000 -3.312000 0
147305.156000 494837.406000 -3.286000 0
147305.297000 494837.719000 -3.281000 0
147305.422000 494837.969000 -3.260000 0
147305.562000 494838.250000 -3.365000 0
147293.156000 494811.531000 -3.551000 0
147293.297000 494811.844000 -3.485000 0
147293.437000 494812.156000 -3.477000 0
147293.609000 494812.500000 -3.439000 0
147293.750000 494812.813000 -3.465000 0
147293.891000 494813.094000 -3.429000 0
147294.016000 494813.344000 -3.479000 0
147294.141000 494813.594000 -3.563000 0
147294.281000 494813.906000 -3.558000 0
147294.422000 494814.188000 -3.517000 0
147294.578000 494814.531000 -3.399000 0
147294.703000 494814.813000 -3.422000 0
147294.859000 494815.125000 -3.428000 0
147295.031000 494815.531000 -3.118000 0
147295.141000 494815.750000 -3.264000 0
147295.281000 494816.031000 -3.282000 0
147295.453000 494816.406000 -3.224000 0
147295.578000 494816.688000 -3.222000 0
147295.687000 494816.875000 -3.342000 0
147295.953000 494817.563000 -2.498000 0
147295.812000 494817.125000 -3.426000 0
147295.969000 494817.469000 -3.452000 0
147296.109000 494817.750000 -3.435000 0
147296.250000 494818.031000 -3.424000 0
147296.391000 494818.344000 -3.375000 0
147296.531000 494818.625000 -3.420000 0
147296.672000 494818.906000 -3.466000 0
147296.812000 494819.219000 -3.439000 0
147296.969000 494819.531000 -3.407000 0
147297.125000 494819.906000 -3.346000 0
147297.281000 494820.250000 -3.228000 0
147297.391000 494820.469000 -3.379000 0
147297.516000 494820.688000 -3.441000 0
147297.672000 494821.031000 -3.437000 0
147297.797000 494821.281000 -3.446000 0
147297.953000 494821.625000 -3.326000 0
147298.078000 494821.906000 -3.410000 0
147298.250000 494822.250000 -3.375000 0
147298.391000 494822.563000 -3.334000 0
147298.500000 494822.781000 -3.414000 0
147298.656000 494823.094000 -3.373000 0
147298.797000 494823.375000 -3.421000 0
147298.922000 494823.656000 -3.476000 0
147299.062000 494823.969000 -3.404000 0
147299.203000 494824.250000 -3.377000 0
147299.359000 494824.594000 -3.387000 0
147299.516000 494824.906000 -3.333000 0
147299.641000 494825.188000 -3.352000 0
147299.766000 494825.438000 -3.422000 0
147299.922000 494825.781000 -3.455000 0
147300.062000 494826.063000 -3.473000 0
147300.203000 494826.375000 -3.364000 0
147300.344000 494826.625000 -3.443000 0
147300.500000 494826.969000 -3.472000 0
147300.625000 494827.250000 -3.443000 0
147300.781000 494827.563000 -3.306000 0
147300.906000 494827.844000 -3.387000 0
147301.062000 494828.188000 -3.357000 0
147301.203000 494828.469000 -3.357000 0
147301.344000 494828.781000 -3.304000 0
147301.469000 494829.031000 -3.374000 0
147301.625000 494829.375000 -3.329000 0
147301.766000 494829.625000 -3.366000 0
147301.891000 494829.906000 -3.407000 0
147302.047000 494830.219000 -3.406000 0
147302.203000 494830.531000 -3.452000 0
147302.359000 494830.875000 -3.319000 0
147302.469000 494831.125000 -3.404000 0
147302.641000 494831.500000 -3.270000 0
147302.781000 494831.781000 -3.336000 0
147302.922000 494832.063000 -3.283000 0
147303.047000 494832.344000 -3.268000 0
147303.187000 494832.656000 -3.206000 0
147303.312000 494832.875000 -3.377000 0
147303.469000 494833.219000 -3.270000 0
147303.578000 494833.438000 -3.371000 0
147303.703000 494833.719000 -3.392000 0
147303.844000 494834.031000 -3.378000 0
147303.984000 494834.281000 -3.401000 0
147304.141000 494834.625000 -3.258000 0
147304.297000 494834.969000 -3.168000 0
147304.437000 494835.250000 -3.220000 0
147304.547000 494835.500000 -3.283000 0
147304.687000 494835.781000 -3.241000 0
147304.812000 494836.063000 -3.338000 0
147304.953000 494836.344000 -3.372000 0
147305.094000 494836.656000 -3.324000 0
147305.391000 494837.438000 -2.155000 0
147305.234000 494836.938000 -3.257000 0
147305.375000 494837.219000 -3.261000 0
147305.516000 494837.531000 -3.292000 0
147305.672000 494837.875000 -3.230000 0
147305.797000 494838.094000 -3.373000 0
147305.937000 494838.406000 -3.368000 0
147293.078000 494810.906000 -3.608000 0
147293.234000 494811.219000 -3.511000 0
147293.359000 494811.500000 -3.535000 0
147293.516000 494811.844000 -3.512000 0
147293.672000 494812.156000 -3.374000 0
147293.781000 494812.438000 -3.412000 0
147293.906000 494812.656000 -3.527000 0
147294.078000 494813.031000 -3.427000 0
147294.203000 494813.313000 -3.473000 0
147294.312000 494813.500000 -3.592000 0
147294.453000 494813.813000 -3.553000 0
147294.625000 494814.188000 -3.458000 0
147294.781000 494814.531000 -3.391000 0
147294.922000 494814.813000 -3.363000 0
147295.031000 494815.031000 -3.431000 0
147295.266000 494815.625000 -2.817000 0
147295.172000 494815.313000 -3.523000 0
147295.359000 494815.750000 -3.278000 0
147295.516000 494816.125000 -3.041000 0
147295.672000 494816.469000 -2.913000 0
147295.781000 494816.656000 -3.186000 0
147295.891000 494816.844000 -3.402000 0
147296.172000 494817.563000 -2.462000 0
147296.031000 494817.125000 -3.398000 0
147296.172000 494817.438000 -3.349000 0
147296.328000 494817.781000 -3.371000 0
147296.469000 494818.063000 -3.435000 0
147296.609000 494818.375000 -3.354000 0
147296.750000 494818.656000 -3.359000 0
147296.891000 494818.969000 -3.394000 0
147297.031000 494819.219000 -3.451000 0
147297.156000 494819.469000 -3.440000 0
147297.312000 494819.813000 -3.347000 0
147297.469000 494820.156000 -3.318000 0
147297.609000 494820.438000 -3.409000 0
147297.734000 494820.719000 -3.419000 0
147297.875000 494821.031000 -3.302000 0
147298.016000 494821.313000 -3.378000 0
147298.156000 494821.594000 -3.413000 0
147298.281000 494821.875000 -3.405000 0
147298.437000 494822.219000 -3.289000 0
147298.578000 494822.500000 -3.333000 0
147298.719000 494822.750000 -3.464000 0
147298.859000 494823.094000 -3.372000 0
147299.000000 494823.375000 -3.401000 0
147299.141000 494823.656000 -3.487000 0
147299.297000 494823.969000 -3.432000 0
147299.437000 494824.281000 -3.397000 0
147299.578000 494824.625000 -3.270000 0
147299.734000 494824.938000 -3.289000 0
147299.875000 494825.219000 -3.384000 0
147300.000000 494825.469000 -3.395000 0
147300.109000 494825.719000 -3.457000 0
147300.281000 494826.094000 -3.365000 0
147300.437000 494826.375000 -3.377000 0
147300.562000 494826.625000 -3.422000 0
147300.703000 494826.938000 -3.417000 0
147300.828000 494827.219000 -3.444000 0
147301.000000 494827.594000 -3.323000 0
147301.141000 494827.844000 -3.404000 0
147301.266000 494828.156000 -3.349000 0
147301.437000 494828.531000 -3.276000 0
147301.578000 494828.813000 -3.273000 0
147301.719000 494829.125000 -3.272000 0
147301.875000 494829.438000 -3.236000 0
147302.000000 494829.688000 -3.371000 0
147302.141000 494829.969000 -3.372000 0
147302.266000 494830.219000 -3.445000 0
147302.422000 494830.563000 -3.325000 0
147302.547000 494830.844000 -3.333000 0
147302.687000 494831.125000 -3.341000 0
147302.828000 494831.438000 -3.304000 0
147302.969000 494831.719000 -3.267000 0
147303.109000 494832.031000 -3.254000 0
147303.312000 494832.531000 -2.716000 0
147303.359000 494832.531000 -3.364000 0
147303.500000 494832.844000 -3.301000 0
147303.672000 494833.219000 -3.192000 0
147303.781000 494833.438000 -3.367000 0
147303.906000 494833.688000 -3.412000 0
147304.031000 494833.969000 -3.394000 0
147304.187000 494834.281000 -3.384000 0
147304.359000 494834.625000 -3.239000 0
147304.500000 494834.938000 -3.196000 0
147304.625000 494835.219000 -3.225000 0
147304.750000 494835.469000 -3.259000 0
147304.891000 494835.750000 -3.335000 0
147305.047000 494836.125000 -3.227000 0
147305.172000 494836.375000 -3.317000 0
147305.344000 494836.719000 -3.255000 0
147305.469000 494836.969000 -3.286000 0
147305.609000 494837.281000 -3.236000 0
147305.750000 494837.594000 -3.216000 0
147305.891000 494837.875000 -3.230000 0
147306.000000 494838.063000 -3.414000 0
147306.156000 494838.406000 -3.356000 0
147293.125000 494810.813000 -3.570000 0
147293.281000 494811.156000 -3.553000 0
147293.406000 494811.438000 -3.536000 0
147293.547000 494811.719000 -3.472000 0
147293.687000 494812.031000 -3.430000 0
147293.844000 494812.344000 -3.448000 0
147293.984000 494812.625000 -3.475000 0
147294.109000 494812.906000 -3.480000 0
147294.266000 494813.219000 -3.443000 0
147294.391000 494813.469000 -3.549000 0
147294.516000 494813.750000 -3.587000 0
147294.672000 494814.094000 -3.463000 0
147294.812000 494814.406000 -3.420000 0
147294.969000 494814.719000 -3.417000 0
