154314.563000 496330.594000 -3.422000 0
154314.688000 496331.094000 -1.340000 0
154314.641000 496330.906000 -3.448000 0
154314.734000 496331.250000 -3.422000 0
154314.797000 496331.531000 -3.473000 0
154314.891000 496331.844000 -3.573000 0
154314.969000 496332.219000 -3.546000 0
154315.063000 496332.531000 -3.592000 0
154315.141000 496332.844000 -3.580000 0
154315.234000 496333.188000 -3.555000 0
154315.313000 496333.531000 -3.522000 0
154315.391000 496333.813000 -3.481000 0
154305.625000 496294.406000 -3.495000 0
154305.719000 496294.781000 -3.525000 0
154305.797000 496295.063000 -3.429000 0
154305.875000 496295.406000 -3.395000 0
154305.953000 496295.719000 -3.513000 0
154306.047000 496296.063000 -3.506000 0
154306.125000 496296.344000 -3.510000 0
154306.203000 496296.688000 -3.511000 0
154306.281000 496297.000000 -3.529000 0
154306.359000 496297.281000 -3.529000 0
154306.438000 496297.625000 -3.644000 0
154306.531000 496297.938000 -3.623000 0
154306.609000 496298.250000 -3.575000 0
154306.688000 496298.563000 -3.535000 0
154306.828000 496299.125000 -1.645000 1
154306.781000 496298.906000 -3.556000 0
154306.859000 496299.219000 -3.515000 0
154306.938000 496299.563000 -3.556000 0
154307.031000 496299.875000 -3.551000 0
154307.109000 496300.188000 -3.558000 0
154307.188000 496300.500000 -3.532000 0
154307.281000 496300.844000 -3.568000 0
154307.359000 496301.188000 -3.481000 0
154307.438000 496301.500000 -3.549000 0
154307.531000 496301.844000 -3.568000 0
154307.609000 496302.188000 -3.466000 0
154307.688000 496302.469000 -3.568000 0
154307.766000 496302.781000 -3.494000 0
154307.938000 496303.438000 -0.647000 0
154307.859000 496303.125000 -3.532000 0
154307.938000 496303.438000 -3.561000 0
154308.078000 496304.000000 -1.338000 0
154308.016000 496303.750000 -3.459000 0
154308.109000 496304.125000 -3.476000 0
154308.188000 496304.438000 -3.464000 0
154308.266000 496304.750000 -3.587000 0
154308.406000 496305.281000 -1.643000 0
154308.359000 496305.063000 -3.600000 0
154308.438000 496305.406000 -3.546000 0
154308.516000 496305.719000 -3.493000 0
154308.609000 496306.063000 -3.495000 0
154308.688000 496306.375000 -3.470000 0
154308.813000 496306.875000 -1.708000 0
154308.766000 496306.688000 -3.438000 0
154308.844000 496307.000000 -3.467000 0
154308.938000 496307.313000 -3.520000 0
154309.063000 496307.813000 -1.725000 0
154309.016000 496307.625000 -3.505000 0
154309.094000 496307.938000 -3.508000 0
154309.219000 496308.438000 -1.862000 0
154309.172000 496308.281000 -3.514000 0
154309.266000 496308.594000 -3.460000 0
154309.328000 496308.906000 -3.522000 0
154309.422000 496309.250000 -3.480000 0
154309.516000 496309.594000 -3.358000 0
154309.594000 496309.875000 -3.453000 0
154309.672000 496310.188000 -3.469000 0
154309.766000 496310.531000 -3.497000 0
154309.844000 496310.844000 -3.535000 0
154309.922000 496311.188000 -3.542000 0
154310.016000 496311.531000 -3.597000 0
154310.094000 496311.844000 -3.620000 0
154310.172000 496312.156000 -3.544000 0
154310.250000 496312.469000 -3.539000 0
154310.344000 496312.781000 -3.459000 0
154310.422000 496313.125000 -3.535000 0
154310.516000 496313.469000 -3.493000 0
154310.594000 496313.781000 -3.470000 0
154310.672000 496314.094000 -3.486000 0
154310.750000 496314.438000 -3.530000 0
154310.844000 496314.781000 -3.480000 0
154310.922000 496315.063000 -3.570000 0
154311.047000 496315.563000 -1.830000 0
154311.000000 496315.406000 -3.588000 0
154311.094000 496315.719000 -3.574000 0
154311.172000 496316.031000 -3.541000 0
154311.250000 496316.375000 -3.427000 0
154311.328000 496316.688000 -3.549000 0
154311.406000 496317.000000 -3.432000 0
154311.531000 496317.438000 -1.792000 0
154311.484000 496317.281000 -3.535000 0
154311.578000 496317.656000 -3.439000 0
154311.656000 496317.969000 -3.379000 0
154311.734000 496318.250000 -3.511000 0
154311.828000 496318.594000 -3.391000 0
154311.906000 496318.906000 -3.497000 0
154311.984000 496319.219000 -3.509000 0
154312.109000 496319.719000 -1.930000 1
154312.063000 496319.563000 -3.541000 0
154312.156000 496319.875000 -3.644000 0
154312.234000 496320.156000 -3.607000 0
154312.313000 496320.500000 -3.657000 0
154312.406000 496320.844000 -3.600000 0
154312.484000 496321.156000 -3.584000 0
154312.563000 496321.500000 -3.504000 0
154312.656000 496321.844000 -3.453000 0
154312.734000 496322.156000 -3.476000 0
154312.813000 496322.469000 -3.268000 0
154312.891000 496322.781000 -3.508000 0
154312.984000 496323.125000 -3.459000 0
154313.063000 496323.438000 -3.369000 0
154313.172000 496323.906000 -1.948000 0
154313.141000 496323.750000 -3.365000 0
154313.234000 496324.094000 -3.478000 0
154313.313000 496324.406000 -3.503000 0
154313.391000 496324.719000 -3.542000 0
154313.484000 496325.063000 -3.396000 0
154313.563000 496325.375000 -3.504000 0
154313.703000 496325.906000 -0.940000 0
154313.641000 496325.688000 -3.509000 0
154313.734000 496326.031000 -3.533000 0
154313.813000 496326.344000 -3.545000 0
154313.891000 496326.625000 -3.487000 0
154313.969000 496326.969000 -3.485000 0
154314.047000 496327.281000 -3.430000 0
154314.141000 496327.594000 -3.422000 0
154314.250000 496328.063000 -1.947000 0
154314.219000 496327.906000 -3.454000 0
154314.297000 496328.250000 -3.455000 0
154314.375000 496328.563000 -3.436000 0
154314.500000 496329.031000 -1.671000 0
154314.453000 496328.875000 -3.437000 0
154314.547000 496329.219000 -3.500000 0
154314.625000 496329.531000 -3.482000 0
154314.703000 496329.844000 -3.405000 0
154314.797000 496330.188000 -3.362000 0
154314.875000 496330.500000 -3.464000 0
154314.953000 496330.813000 -3.444000 0
154315.047000 496331.156000 -3.454000 0
154315.125000 496331.469000 -3.490000 0
154315.203000 496331.781000 -3.505000 0
154315.297000 496332.125000 -3.438000 0
154315.375000 496332.438000 -3.578000 0
154305.953000 496294.281000 -3.484000 0
154306.031000 496294.594000 -3.512000 0
154306.125000 496294.906000 -3.467000 0
154306.359000 496295.875000 -3.391000 0
154306.438000 496296.188000 -3.441000 0
154306.563000 496296.688000 -1.827000 0
154306.531000 496296.500000 -3.430000 0
154306.609000 496296.844000 -3.469000 0
154306.688000 496297.156000 -3.449000 0
154306.766000 496297.469000 -3.583000 0
154306.859000 496297.813000 -3.645000 0
154306.938000 496298.094000 -3.614000 0
154307.047000 496298.563000 -2.212000 1
154307.016000 496298.406000 -3.568000 0
154307.141000 496298.906000 -2.164000 1
154307.109000 496298.750000 -3.551000 0
154307.188000 496299.094000 -3.556000 0
154307.266000 496299.406000 -3.527000 0
154307.359000 496299.750000 -3.513000 0
154307.453000 496300.094000 -3.531000 0
154307.563000 496300.594000 -1.861000 0
154307.531000 496300.406000 -3.522000 0
154307.609000 496300.719000 -3.577000 0
154307.688000 496301.031000 -3.592000 0
154307.766000 496301.344000 -3.573000 0
154307.859000 496301.688000 -3.556000 0
154307.938000 496302.031000 -3.554000 0
154308.031000 496302.344000 -3.476000 0
154308.109000 496302.688000 -3.467000 0
154308.234000 496303.188000 -2.053000 0
154308.188000 496303.000000 -3.558000 0
154308.281000 496303.313000 -3.485000 0
154308.359000 496303.656000 -3.394000 0
154308.438000 496303.969000 -3.446000 0
154308.531000 496304.313000 -3.459000 0
154308.609000 496304.625000 -3.517000 0
154308.688000 496304.906000 -3.619000 0
154308.766000 496305.250000 -3.526000 0
154308.844000 496305.563000 -3.463000 0
154308.922000 496305.875000 -3.525000 0
154309.016000 496306.219000 -3.410000 0
154309.094000 496306.531000 -3.281000 0
154309.172000 496306.844000 -3.470000 0
154309.297000 496307.344000 -1.966000 0
154309.250000 496307.156000 -3.539000 0
154309.344000 496307.500000 -3.562000 0
154309.422000 496307.813000 -3.544000 0
154309.500000 496308.125000 -3.570000 0
154309.594000 496308.438000 -3.564000 0
154309.672000 496308.781000 -3.508000 0
154309.750000 496309.094000 -3.574000 0
154309.844000 496309.438000 -3.488000 0
154309.922000 496309.750000 -3.500000 0
154310.000000 496310.094000 -3.540000 0
154310.094000 496310.406000 -3.547000 0
154310.172000 496310.719000 -3.494000 0
154310.250000 496311.000000 -3.561000 0
154310.344000 496311.375000 -3.566000 0
154310.422000 496311.688000 -3.518000 0
154310.500000 496312.000000 -3.558000 0
154310.594000 496312.344000 -3.483000 0
154310.672000 496312.688000 -3.495000 0
154310.750000 496313.000000 -3.515000 0
154310.844000 496313.313000 -3.500000 0
154310.969000 496313.844000 -1.726000 0
154310.922000 496313.656000 -3.450000 0
154311.000000 496313.938000 -3.516000 0
154311.078000 496314.281000 -3.547000 0
154311.172000 496314.594000 -3.542000 0
154311.250000 496314.906000 -3.559000 0
154311.328000 496315.219000 -3.534000 0
154311.406000 496315.531000 -3.472000 0
154311.484000 496315.875000 -3.500000 0
154311.563000 496316.156000 -3.529000 0
154311.656000 496316.500000 -3.458000 0
154311.734000 496316.844000 -3.425000 0
154311.813000 496317.125000 -3.517000 0
154311.906000 496317.469000 -3.492000 0
154311.984000 496317.813000 -3.499000 0
154312.063000 496318.094000 -3.492000 0
154312.141000 496318.438000 -3.403000 0
154312.234000 496318.781000 -3.429000 0
154312.313000 496319.094000 -3.446000 0
154312.391000 496319.406000 -3.605000 0
154312.484000 496319.750000 -3.646000 0
154312.609000 496320.281000 -1.570000 1
154312.563000 496320.063000 -3.647000 0
154312.703000 496320.625000 -0.920000 0
154312.641000 496320.375000 -3.644000 0
154312.734000 496320.719000 -3.568000 0
154312.813000 496321.031000 -3.460000 0
154312.891000 496321.344000 -3.530000 0
154312.984000 496321.688000 -3.552000 0
154313.063000 496322.000000 -3.505000 0
154313.141000 496322.313000 -3.452000 0
154313.234000 496322.656000 -3.464000 0
154313.313000 496323.000000 -3.567000 0
154313.391000 496323.313000 -3.412000 0
154313.484000 496323.625000 -3.464000 0
154313.563000 496323.969000 -3.461000 0
154313.641000 496324.281000 -3.479000 0
154313.719000 496324.563000 -3.479000 0
154313.813000 496324.906000 -3.515000 0
154313.891000 496325.219000 -3.451000 0
154313.953000 496325.500000 -3.461000 0
154314.047000 496325.844000 -3.475000 0
154314.125000 496326.156000 -3.487000 0
154314.203000 496326.469000 -3.576000 0
154314.297000 496326.781000 -3.531000 0
154314.375000 496327.125000 -3.535000 0
154314.453000 496327.438000 -3.463000 0
154314.547000 496327.750000 -3.504000 0
154314.625000 496328.094000 -3.409000 0
154314.750000 496328.563000 -1.508000 0
154314.703000 496328.406000 -3.440000 0
154314.781000 496328.719000 -3.478000 0
154314.875000 496329.063000 -3.436000 0
154314.969000 496329.406000 -3.410000 0
154315.031000 496329.719000 -3.515000 0
154315.125000 496330.063000 -3.502000 0
154315.219000 496330.375000 -3.478000 0
154315.281000 496330.688000 -3.474000 0
154315.375000 496331.000000 -3.409000 0
154306.344000 496294.406000 -3.490000 0
154306.438000 496294.719000 -3.583000 0
154306.516000 496295.063000 -3.498000 0
154306.594000 496295.375000 -3.461000 0
154306.688000 496295.719000 -3.447000 0
154306.766000 496296.063000 -3.410000 0
154306.844000 496296.344000 -3.513000 0
154306.938000 496296.688000 -3.565000 0
154307.016000 496297.000000 -3.569000 0
154307.094000 496297.313000 -3.592000 0
154307.188000 496297.656000 -3.644000 0
154307.266000 496298.000000 -3.622000 0
154307.406000 496298.531000 -1.725000 0
154307.359000 496298.313000 -3.481000 0
154307.438000 496298.656000 -3.495000 0
154307.516000 496298.969000 -3.591000 0
154307.641000 496299.500000 -1.520000 0
154307.594000 496299.250000 -3.561000 0
154307.688000 496299.594000 -3.532000 0
154307.781000 496299.969000 -3.483000 0
154307.844000 496300.281000 -3.438000 0
154307.938000 496300.594000 -3.476000 0
154308.016000 496300.938000 -3.569000 0
154308.109000 496301.250000 -3.523000 0
154308.172000 496301.563000 -3.560000 0
154308.266000 496301.906000 -3.457000 0
154308.344000 496302.219000 -3.516000 0
154308.438000 496302.531000 -3.492000 0
154308.516000 496302.844000 -3.483000 0
154308.641000 496303.375000 -1.866000 0
154308.594000 496303.188000 -3.523000 0
154308.672000 496303.469000 -3.469000 0
154308.750000 496303.781000 -3.477000 0
154308.844000 496304.125000 -3.466000 0
154308.922000 496304.438000 -3.476000 0
154309.000000 496304.750000 -3.454000 0
154309.078000 496305.094000 -3.523000 0
154309.172000 496305.406000 -3.400000 0
154309.250000 496305.719000 -3.512000 0
154309.328000 496306.063000 -3.582000 0
154309.422000 496306.375000 -3.478000 0
154309.484000 496306.688000 -3.502000 0
154309.578000 496307.000000 -3.548000 0
154309.672000 496307.344000 -3.570000 0
154309.750000 496307.656000 -3.499000 0
154309.828000 496308.000000 -3.544000 0
154309.922000 496308.344000 -3.509000 0
154310.031000 496308.813000 -1.977000 0
154310.000000 496308.625000 -3.610000 0
154310.078000 496308.938000 -3.586000 0
154310.156000 496309.281000 -3.600000 0
154310.250000 496309.625000 -3.595000 0
154310.328000 496309.938000 -3.559000 0
154310.406000 496310.250000 -3.483000 0
154310.500000 496310.594000 -3.573000 0
154310.578000 496310.906000 -3.496000 0
154310.672000 496311.250000 -3.506000 0
154310.750000 496311.563000 -3.514000 0
154310.828000 496311.906000 -3.459000 0
154310.906000 496312.219000 -3.459000 0
154311.000000 496312.563000 -3.420000 0
154311.156000 496313.156000 -3.463000 0
154311.234000 496313.500000 -3.489000 0
154311.313000 496313.781000 -3.516000 0
154311.391000 496314.094000 -3.587000 0
154311.484000 496314.438000 -3.605000 0
154311.563000 496314.750000 -3.547000 0
154311.641000 496315.063000 -3.545000 0
154311.719000 496315.375000 -3.506000 0
154311.859000 496315.906000 -1.742000 0
154311.813000 496315.750000 -3.416000 0
154311.891000 496316.031000 -3.505000 0
154311.969000 496316.344000 -3.452000 0
154312.063000 496316.688000 -3.482000 0
154312.141000 496317.000000 -3.590000 0
154312.219000 496317.313000 -3.515000 0
154312.313000 496317.688000 -3.469000 0
154312.391000 496318.000000 -3.546000 0
154312.469000 496318.313000 -3.566000 0
154312.563000 496318.656000 -3.491000 0
154312.641000 496318.969000 -3.471000 0
154312.750000 496319.406000 -1.875000 0
154312.719000 496319.219000 -3.642000 0
154312.797000 496319.594000 -3.663000 0
154312.891000 496319.938000 -3.621000 0
154312.969000 496320.219000 -3.613000 0
154313.047000 496320.563000 -3.571000 0
154313.141000 496320.906000 -3.523000 0
154313.219000 496321.219000 -3.477000 0
154313.297000 496321.531000 -3.528000 0
154313.391000 496321.875000 -3.458000 0
154313.469000 496322.188000 -3.422000 0
154313.563000 496322.500000 -3.409000 0
154313.641000 496322.844000 -3.461000 0
154313.750000 496323.281000 -2.153000 0
154313.719000 496323.156000 -3.460000 0
154313.797000 496323.438000 -3.475000 0
154313.875000 496323.781000 -3.515000 0
154313.969000 496324.125000 -3.484000 0
154314.047000 496324.406000 -3.468000 0
154314.156000 496324.844000 -2.082000 0
154314.125000 496324.719000 -3.430000 0
154314.219000 496325.063000 -3.453000 0
154314.313000 496325.500000 -1.906000 0
154314.281000 496325.344000 -3.469000 0
154314.359000 496325.688000 -3.513000 0
154314.500000 496326.188000 -1.738000 0
154314.453000 496326.031000 -3.436000 0
154314.531000 496326.344000 -3.398000 0
154314.609000 496326.625000 -3.495000 0
154314.703000 496326.969000 -3.495000 0
154314.781000 496327.313000 -3.434000 0
154314.859000 496327.625000 -3.498000 0
154314.953000 496327.969000 -3.543000 0
154315.047000 496328.313000 -3.505000 0
154315.125000 496328.594000 -3.494000 0
154315.203000 496328.938000 -3.423000 0
154315.281000 496329.250000 -3.358000 0
154315.359000 496329.563000 -3.309000 0
154306.750000 496294.313000 -3.493000 0
154306.844000 496294.656000 -3.562000 0
154306.922000 496294.969000 -3.591000 0
154307.000000 496295.250000 -3.591000 0
154307.078000 496295.594000 -3.564000 0
154307.172000 496295.969000 -3.481000 0
154307.297000 496296.438000 -1.980000 0
154307.250000 496296.250000 -3.560000 0
154307.344000 496296.594000 -3.557000 0
154307.422000 496296.938000 -3.572000 0
154307.500000 496297.250000 -3.602000 0
154307.578000 496297.563000 -3.652000 0
154307.672000 496297.875000 -3.652000 0
154307.750000 496298.219000 -3.610000 0
154307.828000 496298.531000 -3.537000 0
154307.922000 496298.875000 -3.468000 0
154308.000000 496299.188000 -3.472000 0
154308.078000 496299.500000 -3.515000 0
154308.172000 496299.875000 -3.551000 0
154308.250000 496300.188000 -3.606000 0
154308.328000 496300.500000 -3.557000 0
154308.422000 496300.813000 -3.547000 0
154308.500000 496301.156000 -3.550000 0
154308.578000 496301.438000 -3.574000 0
154308.656000 496301.750000 -3.557000 0
154308.750000 496302.094000 -3.521000 0
154308.828000 496302.406000 -3.566000 0
154308.906000 496302.719000 -3.558000 0
154308.984000 496303.063000 -3.562000 0
154309.078000 496303.375000 -3.455000 0
154309.203000 496303.906000 -1.590000 0
154309.156000 496303.688000 -3.460000 0
154309.234000 496304.000000 -3.495000 0
154309.328000 496304.344000 -3.483000 0
154309.406000 496304.656000 -3.450000 0
154309.484000 496304.969000 -3.511000 0
154309.563000 496305.313000 -3.512000 0
154309.656000 496305.625000 -3.477000 0
154309.734000 496305.969000 -3.538000 0
154309.875000 496306.500000 -1.831000 0
154309.828000 496306.313000 -3.540000 0
154309.906000 496306.625000 -3.569000 0
154310.016000 496307.094000 -2.276000 0
154309.984000 496306.938000 -3.579000 0
154310.078000 496307.281000 -3.522000 0
154310.156000 496307.594000 -3.514000 0
154310.234000 496307.906000 -3.380000 0
154310.313000 496308.250000 -3.474000 0
154310.406000 496308.563000 -3.509000 0
154310.484000 496308.875000 -3.544000 0
154310.563000 496309.219000 -3.543000 0
154310.656000 496309.531000 -3.565000 0
154310.734000 496309.875000 -3.452000 0
154310.813000 496310.188000 -3.458000 0
154310.906000 496310.531000 -3.546000 0
154310.984000 496310.813000 -3.543000 0
154311.063000 496311.156000 -3.468000 0
154311.156000 496311.500000 -3.443000 0
154311.234000 496311.781000 -3.490000 0
154311.313000 496312.094000 -3.508000 0
154311.391000 496312.438000 -3.436000 0
154311.469000 496312.750000 -3.508000 0
154311.547000 496313.031000 -3.529000 0
154311.641000 496313.375000 -3.476000 0
154311.719000 496313.719000 -3.567000 0
154311.797000 496314.000000 -3.637000 0
154311.875000 496314.313000 -3.596000 0
154311.969000 496314.688000 -3.576000 0
154312.047000 496314.969000 -3.574000 0
154312.172000 496315.469000 -1.605000 0
154312.125000 496315.281000 -3.473000 0
154312.219000 496315.656000 -3.450000 0
154312.297000 496315.969000 -3.440000 0
154312.422000 496316.406000 -2.101000 0
154312.375000 496316.281000 -3.516000 0
154312.469000 496316.656000 -3.448000 0
154312.563000 496316.969000 -3.501000 0
154312.625000 496317.250000 -3.523000 0
154312.719000 496317.594000 -3.500000 0
154312.844000 496318.094000 -1.540000 0
154312.797000 496317.906000 -3.501000 0
154312.875000 496318.219000 -3.579000 0
154312.969000 496318.531000 -3.544000 0
154313.094000 496319.031000 -1.809000 0
154313.047000 496318.844000 -3.645000 0
154313.125000 496319.188000 -3.642000 0
154313.219000 496319.500000 -3.637000 0
154313.297000 496319.844000 -3.598000 0
154313.375000 496320.156000 -3.564000 0
154313.500000 496320.625000 -2.067000 0
154313.469000 496320.500000 -3.567000 0
154313.547000 496320.813000 -3.467000 0
154313.625000 496321.156000 -3.492000 0
154313.703000 496321.438000 -3.549000 0
154313.828000 496321.906000 -2.160000 0
154313.797000 496321.781000 -3.485000 0
154313.875000 496322.094000 -3.433000 0
154313.953000 496322.375000 -3.510000 0
154314.031000 496322.719000 -3.448000 0
154314.125000 496323.063000 -3.412000 0
154314.203000 496323.344000 -3.349000 0
154314.281000 496323.688000 -3.428000 0
154314.359000 496324.000000 -3.515000 0
154314.438000 496324.313000 -3.495000 0
154314.531000 496324.656000 -3.455000 0
154314.609000 496324.969000 -3.533000 0
154314.688000 496325.281000 -3.542000 0
154314.766000 496325.594000 -3.510000 0
154314.859000 496325.938000 -3.413000 0
154314.953000 496326.281000 -3.494000 0
154315.031000 496326.594000 -3.536000 0
154315.109000 496326.938000 -3.486000 0
154315.203000 496327.250000 -3.487000 0
154315.266000 496327.531000 -3.522000 0
154315.359000 496327.875000 -3.414000 0
154307.063000 496294.188000 -3.558000 0
154307.156000 496294.531000 -3.500000 0
154307.250000 496294.844000 -3.609000 0
154307.375000 496295.375000 -1.783000 0
154307.328000 496295.188000 -3.571000 0
154307.406000 496295.469000 -3.584000 0
154307.484000 496295.813000 -3.589000 0
154307.563000 496296.125000 -3.562000 0
154307.656000 496296.438000 -3.558000 0
154307.781000 496296.969000 -1.848000 0
154307.734000 496296.781000 -3.514000 0
154307.813000 496297.094000 -3.505000 0
154307.906000 496297.406000 -3.519000 0
154307.984000 496297.750000 -3.650000 0
154308.078000 496298.094000 -3.629000 0
154308.141000 496298.375000 -3.601000 0
154308.234000 496298.750000 -3.451000 0
154308.328000 496299.063000 -3.575000 0
154308.406000 496299.375000 -3.523000 0
154308.484000 496299.688000 -3.547000 0
154308.563000 496300.031000 -3.475000 0
154308.641000 496300.313000 -3.566000 0
154308.719000 496300.625000 -3.509000 0
154308.813000 496300.969000 -3.531000 0
154308.891000 496301.281000 -3.459000 0
154308.969000 496301.594000 -3.528000 0
154309.063000 496301.938000 -3.556000 0
154309.141000 496302.250000 -3.567000 0
154309.219000 496302.563000 -3.615000 0
154309.297000 496302.906000 -3.598000 0
154309.391000 496303.250000 -3.489000 0
154309.469000 496303.531000 -3.390000 0
154309.547000 496303.875000 -3.467000 0
154309.641000 496304.219000 -3.497000 0
154309.719000 496304.531000 -3.501000 0
154309.797000 496304.844000 -3.522000 0
154309.891000 496305.219000 -3.456000 0
154309.984000 496305.531000 -3.367000 0
154310.047000 496305.781000 -3.569000 0
154310.141000 496306.125000 -3.540000 0
154310.219000 496306.469000 -3.559000 0
154310.297000 496306.781000 -3.567000 0
154310.391000 496307.094000 -3.503000 0
154310.469000 496307.438000 -3.494000 0
154310.547000 496307.750000 -3.494000 0
154310.641000 496308.094000 -3.482000 0
154310.719000 496308.438000 -3.475000 0
154310.797000 496308.750000 -3.484000 0
154310.875000 496309.063000 -3.425000 0
154311.000000 496309.531000 -2.340000 0
154310.969000 496309.406000 -3.538000 0
154311.047000 496309.688000 -3.563000 0
154311.125000 496310.000000 -3.429000 0
154311.203000 496310.344000 -3.472000 0
154311.297000 496310.656000 -3.564000 0
154311.375000 496310.938000 -3.545000 0
154311.453000 496311.281000 -3.581000 0
154311.531000 496311.594000 -3.501000 0
154311.625000 496311.938000 -3.474000 0
154311.703000 496312.219000 -3.532000 0
154311.781000 496312.594000 -3.542000 0
154311.875000 496312.906000 -3.461000 0
154311.953000 496313.219000 -3.489000 0
154312.031000 496313.531000 -3.583000 0
154312.109000 496313.844000 -3.483000 0
154312.203000 496314.188000 -3.529000 0
154312.281000 496314.531000 -3.509000 0
154312.375000 496314.844000 -3.515000 0
154312.453000 496315.156000 -3.555000 0
154312.531000 496315.500000 -3.563000 0
154312.609000 496315.813000 -3.476000 0
154312.688000 496316.125000 -3.447000 0
154312.781000 496316.438000 -3.495000 0
154312.859000 496316.781000 -3.517000 0
154312.938000 496317.094000 -3.494000 0
154313.031000 496317.406000 -3.453000 0
154313.125000 496317.781000 -3.497000 0
154313.203000 496318.094000 -3.558000 0
154313.266000 496318.375000 -3.579000 0
154313.359000 496318.719000 -3.644000 0
154313.438000 496319.031000 -3.662000 0
154313.516000 496319.344000 -3.641000 0
154313.609000 496319.688000 -3.550000 0
154313.688000 496320.000000 -3.558000 0
154313.766000 496320.281000 -3.553000 0
154313.844000 496320.594000 -3.517000 0
154313.938000 496320.969000 -3.566000 0
154314.016000 496321.250000 -3.487000 0
154314.094000 496321.563000 -3.557000 0
154314.188000 496321.906000 -3.446000 0
154314.297000 496322.375000 -1.945000 0
154314.266000 496322.219000 -3.554000 0
154314.344000 496322.531000 -3.558000 0
154314.438000 496322.875000 -3.413000 0
154314.547000 496323.375000 -1.633000 1
154314.516000 496323.219000 -3.395000 0
154314.594000 496323.500000 -3.393000 0
154314.672000 496323.844000 -3.459000 0
154314.797000 496324.313000 -1.865000 0
154314.766000 496324.188000 -3.463000 0
154314.844000 496324.500000 -3.452000 0
154314.922000 496324.813000 -3.531000 0
154315.063000 496325.344000 -1.639000 0
154315.016000 496325.156000 -3.555000 0
154315.094000 496325.469000 -3.511000 0
154315.172000 496325.781000 -3.523000 0
154315.250000 496326.094000 -3.481000 0
154315.344000 496326.406000 -3.541000 0
154315.422000 496326.750000 -3.464000 0
154307.500000 496294.344000 -3.535000 0
154307.594000 496294.656000 -3.534000 0
154307.672000 496295.000000 -3.565000 0
154307.813000 496295.500000 -1.829000 0
154307.750000 496295.313000 -3.590000 0
154307.875000 496295.813000 -2.117000 0
154307.844000 496295.625000 -3.532000 0
154307.922000 496295.969000 -3.555000 0
154308.016000 496296.281000 -3.544000 0
154308.094000 496296.656000 -3.476000 0
154308.188000 496296.969000 -3.513000 0
154308.266000 496297.250000 -3.607000 0
154308.344000 496297.594000 -3.610000 0
154308.422000 496297.938000 -3.626000 0
154308.500000 496298.219000 -3.629000 0
154308.578000 496298.531000 -3.588000 0
154308.672000 496298.875000 -3.587000 0
154308.750000 496299.188000 -3.583000 0
154308.828000 496299.500000 -3.471000 0
154308.922000 496299.813000 -3.538000 0
154309.000000 496300.156000 -3.476000 0
154309.078000 496300.469000 -3.510000 0
154309.156000 496300.781000 -3.459000 0
154309.250000 496301.125000 -3.559000 0
154309.328000 496301.438000 -3.550000 0
154309.406000 496301.750000 -3.574000 0
154309.500000 496302.094000 -3.545000 0
154309.578000 496302.406000 -3.615000 0
154309.656000 496302.719000 -3.587000 0
154309.750000 496303.094000 -3.551000 0
154309.828000 496303.406000 -3.472000 0
154309.922000 496303.719000 -3.495000 0
154310.000000 496304.063000 -3.479000 0
154310.078000 496304.375000 -3.462000 0
154310.156000 496304.656000 -3.536000 0
154310.250000 496305.000000 -3.480000 0
154310.328000 496305.344000 -3.457000 0
154310.406000 496305.625000 -3.489000 0
154310.500000 496306.000000 -3.468000 0
154310.578000 496306.313000 -3.600000 0
154310.656000 496306.625000 -3.549000 0
154310.750000 496306.969000 -3.283000 0
154310.875000 496307.469000 -1.988000 0
154310.828000 496307.313000 -3.454000 0
154310.906000 496307.625000 -3.474000 0
154311.000000 496307.938000 -3.487000 0
154311.078000 496308.250000 -3.525000 0
154311.156000 496308.563000 -3.499000 0
154311.234000 496308.875000 -3.463000 0
154311.313000 496309.188000 -3.519000 0
154311.406000 496309.531000 -3.513000 0
154311.484000 496309.813000 -3.509000 0
154311.563000 496310.125000 -3.573000 0
154311.641000 496310.469000 -3.549000 0
154311.719000 496310.781000 -3.554000 0
154311.813000 496311.094000 -3.538000 0
154311.891000 496311.438000 -3.526000 0
154311.969000 496311.750000 -3.550000 0
154312.047000 496312.063000 -3.561000 0
154312.141000 496312.406000 -3.529000 0
154312.234000 496312.750000 -3.514000 0
154312.359000 496313.250000 -1.653000 0
154312.313000 496313.063000 -3.527000 0
154312.406000 496313.406000 -3.482000 0
154312.484000 496313.750000 -3.517000 0
154312.563000 496314.031000 -3.515000 0
154312.641000 496314.375000 -3.406000 0
154312.719000 496314.688000 -3.463000 0
154312.813000 496315.000000 -3.563000 0
154312.891000 496315.313000 -3.587000 0
154312.969000 496315.656000 -3.485000 0
154313.063000 496315.969000 -3.476000 0
154313.141000 496316.281000 -3.539000 0
154313.234000 496316.656000 -3.487000 0
154313.313000 496316.969000 -3.514000 0
154313.391000 496317.281000 -3.305000 0
154313.469000 496317.594000 -3.456000 0
154313.563000 496317.938000 -3.514000 0
154313.641000 496318.219000 -3.587000 0
154313.719000 496318.531000 -3.662000 0
154313.797000 496318.844000 -3.649000 0
154313.875000 496319.156000 -3.588000 0
154313.953000 496319.500000 -3.543000 0
154314.047000 496319.813000 -3.542000 0
154314.125000 496320.125000 -3.515000 0
154314.203000 496320.438000 -3.544000 0
154314.281000 496320.781000 -3.518000 0
154314.375000 496321.094000 -3.513000 0
154314.453000 496321.438000 -3.498000 0
154314.531000 496321.750000 -3.511000 0
154314.625000 496322.063000 -3.489000 0
154314.703000 496322.375000 -3.554000 0
154314.828000 496322.875000 -1.824000 1
154314.781000 496322.719000 -3.457000 0
154314.875000 496323.063000 -3.516000 0
154314.953000 496323.375000 -3.464000 0
154315.047000 496323.719000 -3.484000 0
154315.125000 496324.031000 -3.446000 0
154315.203000 496324.344000 -3.508000 0
154315.281000 496324.656000 -3.522000 0
154315.375000 496324.969000 -3.525000 0
154307.953000 496294.438000 -3.544000 0
154308.047000 496294.781000 -3.512000 0
154308.125000 496295.094000 -3.444000 0
154308.203000 496295.406000 -3.455000 0
154308.281000 496295.719000 -3.523000 0
154308.375000 496296.063000 -3.525000 0
154308.453000 496296.344000 -3.571000 0
154308.531000 496296.688000 -3.565000 0
154308.609000 496297.000000 -3.593000 0
154308.688000 496297.281000 -3.601000 0
154308.781000 496297.625000 -3.633000 0
154308.859000 496297.938000 -3.633000 0
154309.016000 496298.563000 -0.731000 0
154308.938000 496298.250000 -3.512000 0
154309.063000 496298.781000 -2.004000 0
154309.016000 496298.594000 -3.489000 0
154309.109000 496298.938000 -3.534000 0
154309.188000 496299.219000 -3.554000 0
154309.266000 496299.563000 -3.568000 0
154309.359000 496299.906000 -3.615000 0
154309.438000 496300.188000 -3.579000 0
154309.516000 496300.531000 -3.587000 0
154309.609000 496300.875000 -3.594000 0
154309.688000 496301.188000 -3.578000 0
154309.766000 496301.531000 -3.603000 0
154309.859000 496301.875000 -3.593000 0
154309.938000 496302.188000 -3.524000 0
154310.016000 496302.469000 -3.515000 0
154310.094000 496302.813000 -3.514000 0
154310.188000 496303.156000 -3.514000 0
154310.266000 496303.469000 -3.523000 0
154310.344000 496303.781000 -3.563000 0
154310.438000 496304.125000 -3.596000 0
154310.516000 496304.438000 -3.537000 0
154310.609000 496304.781000 -3.464000 0
154310.688000 496305.125000 -3.427000 0
154310.766000 496305.438000 -3.517000 0
154310.844000 496305.719000 -3.552000 0
154310.938000 496306.063000 -3.516000 0
154311.016000 496306.406000 -3.480000 0
154311.094000 496306.688000 -3.564000 0
154311.172000 496307.000000 -3.452000 0
154311.266000 496307.344000 -3.493000 0
154311.344000 496307.656000 -3.353000 0
154311.453000 496308.094000 -2.194000 0
154311.422000 496307.969000 -3.458000 0
154311.500000 496308.281000 -3.443000 0
154311.594000 496308.625000 -3.509000 0
154311.672000 496308.906000 -3.477000 0
154311.766000 496309.281000 -3.510000 0
154311.844000 496309.594000 -3.469000 0
154311.922000 496309.875000 -3.526000 0
154312.000000 496310.219000 -3.522000 0
154312.094000 496310.563000 -3.541000 0
154312.172000 496310.875000 -3.457000 0
154312.266000 496311.219000 -3.379000 0
154312.344000 496311.563000 -3.447000 0
154312.422000 496311.875000 -3.386000 0
154312.500000 496312.188000 -3.444000 0
154312.594000 496312.500000 -3.455000 0
154312.656000 496312.813000 -3.527000 0
154312.797000 496313.313000 -1.687000 0
154312.750000 496313.125000 -3.541000 0
154312.844000 496313.500000 -3.457000 0
154312.922000 496313.781000 -3.507000 0
154313.000000 496314.125000 -3.462000 0
154313.094000 496314.469000 -3.347000 0
154313.172000 496314.781000 -3.475000 0
154313.281000 496315.219000 -1.980000 0
154313.250000 496315.063000 -3.566000 0
154313.328000 496315.406000 -3.607000 0
154313.422000 496315.750000 -3.516000 0
154313.500000 496316.063000 -3.458000 0
154313.578000 496316.375000 -3.477000 0
154313.672000 496316.719000 -3.412000 0
154313.750000 496317.031000 -3.361000 0
154313.859000 496317.469000 -1.728000 0
154313.828000 496317.313000 -3.410000 0
154313.969000 496317.906000 -0.721000 0
154313.906000 496317.656000 -3.447000 0
154314.031000 496318.156000 -1.486000 1
154313.984000 496317.938000 -3.634000 0
154314.063000 496318.250000 -3.659000 0
154314.141000 496318.594000 -3.651000 0
154314.234000 496318.906000 -3.562000 0
154314.313000 496319.219000 -3.541000 0
154314.406000 496319.594000 -3.501000 0
154314.484000 496319.906000 -3.545000 0
154314.625000 496320.438000 -0.781000 0
154314.563000 496320.188000 -3.581000 0
154314.688000 496320.688000 -1.855000 0
154314.641000 496320.531000 -3.495000 0
154314.766000 496321.031000 -1.765000 0
154314.734000 496320.875000 -3.524000 0
154314.813000 496321.188000 -3.489000 0
154314.906000 496321.531000 -3.450000 0
154314.984000 496321.875000 -3.476000 0
154315.063000 496322.156000 -3.469000 0
154315.141000 496322.469000 -3.479000 0
154315.266000 496322.938000 -2.042000 0
154315.234000 496322.781000 -3.466000 0
154315.313000 496323.125000 -3.497000 0
154315.391000 496323.438000 -3.462000 0
154308.313000 496294.219000 -3.534000 0
154308.391000 496294.594000 -3.524000 0
154308.484000 496294.906000 -3.476000 0
154308.563000 496295.188000 -3.442000 0
154308.641000 496295.531000 -3.529000 0
154308.719000 496295.844000 -3.582000 0
154308.797000 496296.156000 -3.591000 0
154308.875000 496296.469000 -3.583000 0
154308.969000 496296.813000 -3.500000 0
154309.047000 496297.094000 -3.605000 0
154309.156000 496297.563000 -2.260000 0
154309.125000 496297.438000 -3.543000 0
154309.219000 496297.750000 -3.657000 0
154309.297000 496298.094000 -3.603000 0
154309.375000 496298.406000 -3.561000 0
154309.469000 496298.750000 -3.437000 0
154309.547000 496299.063000 -3.531000 0
154309.625000 496299.375000 -3.519000 0
154309.719000 496299.719000 -3.606000 0
154309.797000 496300.063000 -3.623000 0
154309.875000 496300.375000 -3.601000 0
154309.969000 496300.688000 -3.517000 0
154310.047000 496301.031000 -3.542000 0
154310.125000 496301.313000 -3.510000 0
154310.203000 496301.656000 -3.493000 0
154310.297000 496302.000000 -3.635000 0
154310.375000 496302.281000 -3.545000 0
154310.453000 496302.625000 -3.529000 0
154310.547000 496303.000000 -3.513000 0
154310.641000 496303.313000 -3.448000 0
154310.719000 496303.625000 -3.475000 0
154310.844000 496304.125000 -2.043000 0
154310.797000 496303.938000 -3.604000 0
154310.875000 496304.250000 -3.571000 0
154310.969000 496304.594000 -3.475000 0
154311.047000 496304.906000 -3.544000 0
154311.125000 496305.219000 -3.578000 0
154311.203000 496305.500000 -3.566000 0
154311.281000 496305.844000 -3.477000 0
154311.406000 496306.344000 -2.019000 0
154311.375000 496306.188000 -3.491000 0
154311.453000 496306.469000 -3.446000 0
154311.531000 496306.781000 -3.489000 0
154311.609000 496307.125000 -3.525000 0
154311.703000 496307.469000 -3.448000 0
154311.781000 496307.750000 -3.475000 0
154311.875000 496308.125000 -3.424000 0
154311.953000 496308.438000 -3.410000 0
154312.016000 496308.719000 -3.437000 0
154312.109000 496309.063000 -3.462000 0
154312.188000 496309.406000 -3.579000 0
154312.281000 496309.719000 -3.587000 0
154312.359000 496310.063000 -3.546000 0
154312.453000 496310.406000 -3.506000 0
154312.531000 496310.688000 -3.532000 0
154312.609000 496311.031000 -3.450000 0
154312.703000 496311.344000 -3.399000 0
154312.781000 496311.656000 -3.488000 0
154312.859000 496311.969000 -3.506000 0
154312.938000 496312.313000 -3.488000 0
154313.031000 496312.656000 -3.508000 0
154313.109000 496312.969000 -3.502000 0
154313.188000 496313.281000 -3.568000 0
154313.281000 496313.625000 -3.524000 0
154313.359000 496313.938000 -3.447000 0
154313.484000 496314.438000 -1.765000 0
154313.438000 496314.250000 -3.527000 0
154313.531000 496314.594000 -3.512000 0
154313.609000 496314.906000 -3.554000 0
154313.688000 496315.188000 -3.527000 0
154313.766000 496315.531000 -3.605000 0
154313.844000 496315.844000 -3.562000 0
154313.938000 496316.156000 -3.427000 0
154314.016000 496316.500000 -3.433000 0
154314.094000 496316.813000 -3.442000 0
154314.172000 496317.125000 -3.328000 0
154314.266000 496317.438000 -3.371000 0
154314.344000 496317.750000 -3.623000 0
154314.484000 496318.344000 -0.741000 0
154314.422000 496318.063000 -3.627000 0
154314.500000 496318.375000 -3.643000 0
154314.594000 496318.719000 -3.505000 0
154314.672000 496319.031000 -3.546000 0
154314.750000 496319.375000 -3.478000 0
154314.844000 496319.750000 -3.395000 0
154314.922000 496320.031000 -3.512000 0
154315.016000 496320.375000 -3.503000 0
154315.094000 496320.688000 -3.528000 0
154315.172000 496321.000000 -3.504000 0
154315.250000 496321.313000 -3.491000 0
154315.344000 496321.656000 -3.466000 0
154308.688000 496294.406000 -3.564000 0
154308.781000 496294.781000 -3.499000 0
154308.859000 496295.063000 -3.479000 0
154308.938000 496295.375000 -3.497000 0
154309.063000 496295.906000 -1.900000 0
154309.016000 496295.688000 -3.554000 0
154309.109000 496296.000000 -3.589000 0
154309.188000 496296.344000 -3.543000 0
154309.281000 496296.688000 -3.460000 0
154309.359000 496297.000000 -3.437000 0
154309.438000 496297.313000 -3.473000 0
154309.516000 496297.625000 -3.555000 0
154309.609000 496297.969000 -3.680000 0
154309.688000 496298.281000 -3.589000 0
154309.781000 496298.656000 -3.460000 0
154309.859000 496299.000000 -3.407000 0
154309.938000 496299.281000 -3.427000 0
154310.016000 496299.594000 -3.539000 0
154310.109000 496299.906000 -3.527000 0
154310.188000 496300.250000 -3.374000 0
154310.266000 496300.563000 -3.489000 0
154310.359000 496300.906000 -3.474000 0
154310.438000 496301.219000 -3.464000 0
154310.516000 496301.531000 -3.508000 0
154310.609000 496301.875000 -3.558000 0
154310.688000 496302.188000 -3.568000 0
154310.766000 496302.500000 -3.511000 0
154310.859000 496302.844000 -3.488000 0
154310.938000 496303.188000 -3.506000 0
154311.016000 496303.469000 -3.424000 0
154311.141000 496303.938000 -2.118000 0
154311.094000 496303.781000 -3.529000 0
154311.172000 496304.094000 -3.613000 0
154311.250000 496304.406000 -3.541000 0
154311.344000 496304.750000 -3.516000 0
154311.422000 496305.063000 -3.573000 0
154311.500000 496305.375000 -3.553000 0
154311.578000 496305.688000 -3.508000 0
154311.719000 496306.219000 -1.845000 0
154311.672000 496306.031000 -3.469000 0
154311.750000 496306.375000 -3.432000 0
154311.828000 496306.656000 -3.515000 0
154311.922000 496307.000000 -3.520000 0
154312.000000 496307.313000 -3.497000 0
154312.078000 496307.656000 -3.506000 0
154312.172000 496307.969000 -3.403000 0
154312.266000 496308.313000 -3.453000 0
154312.344000 496308.625000 -3.502000 0
154312.422000 496308.969000 -3.404000 0
154312.500000 496309.281000 -3.549000 0
154312.578000 496309.594000 -3.580000 0
154312.656000 496309.906000 -3.546000 0
154312.750000 496310.250000 -3.551000 0
154312.844000 496310.594000 -3.494000 0
154312.906000 496310.875000 -3.511000 0
154313.000000 496311.219000 -3.525000 0
154313.094000 496311.563000 -3.504000 0
154313.172000 496311.875000 -3.547000 0
154313.250000 496312.188000 -3.533000 0
154313.344000 496312.531000 -3.625000 0
154313.406000 496312.813000 -3.558000 0
154313.500000 496313.156000 -3.580000 0
154313.578000 496313.500000 -3.490000 0
154313.656000 496313.781000 -3.478000 0
154313.734000 496314.094000 -3.537000 0
154313.828000 496314.406000 -3.506000 0
154313.906000 496314.750000 -3.538000 0
154313.984000 496315.063000 -3.523000 0
154314.109000 496315.531000 -1.853000 0
154314.063000 496315.375000 -3.531000 0
154314.188000 496315.875000 -2.072000 0
154314.156000 496315.719000 -3.617000 0
154314.234000 496316.031000 -3.463000 0
154314.313000 496316.344000 -3.450000 0
154314.406000 496316.688000 -3.371000 0
154314.484000 496317.000000 -3.421000 0
154314.563000 496317.281000 -3.435000 0
154314.641000 496317.625000 -3.632000 0
154314.734000 496317.938000 -3.614000 0
154314.813000 496318.281000 -3.615000 0
154314.906000 496318.625000 -3.531000 0
154315.016000 496319.094000 -2.180000 0
154314.984000 496318.969000 -3.587000 0
154315.063000 496319.250000 -3.591000 0
154315.141000 496319.594000 -3.532000 0
154315.234000 496319.906000 -3.397000 0
154315.313000 496320.219000 -3.397000 0
154315.391000 496320.563000 -3.447000 0
154309.000000 496294.156000 -3.502000 0
154309.078000 496294.500000 -3.484000 0
154309.172000 496294.844000 -3.482000 0
154309.250000 496295.125000 -3.532000 0
154309.328000 496295.438000 -3.611000 0
154309.406000 496295.781000 -3.549000 0
154309.500000 496296.094000 -3.556000 0
154309.578000 496296.438000 -3.496000 0
154309.672000 496296.813000 -3.371000 0
154309.750000 496297.094000 -3.514000 0
154309.828000 496297.406000 -3.575000 0
154309.906000 496297.719000 -3.644000 0
154309.984000 496298.031000 -3.660000 0
154310.078000 496298.375000 -3.561000 0
154310.172000 496298.719000 -3.467000 0
154310.250000 496299.063000 -3.361000 0
154310.328000 496299.344000 -3.463000 0
154310.422000 496299.688000 -3.559000 0
154310.500000 496300.031000 -3.451000 0
154310.578000 496300.344000 -3.414000 0
154310.672000 496300.688000 -3.343000 0
154310.750000 496301.000000 -3.499000 0
154310.828000 496301.313000 -3.403000 0
154310.906000 496301.625000 -3.477000 0
154311.000000 496301.938000 -3.553000 0
154311.063000 496302.250000 -3.608000 0
154311.141000 496302.563000 -3.523000 0
154311.234000 496302.906000 -3.550000 0
154311.313000 496303.219000 -3.431000 0
154311.391000 496303.531000 -3.449000 0
154311.484000 496303.844000 -3.479000 0
154311.563000 496304.188000 -3.601000 0
154311.641000 496304.500000 -3.544000 0
154311.734000 496304.844000 -3.555000 0
154311.813000 496305.156000 -3.572000 0
154311.891000 496305.438000 -3.541000 0
154311.969000 496305.781000 -3.518000 0
154312.063000 496306.125000 -3.446000 0
154312.156000 496306.469000 -3.468000 0
154312.234000 496306.781000 -3.475000 0
154312.328000 496307.125000 -3.449000 0
154312.391000 496307.438000 -3.519000 0
154312.469000 496307.719000 -3.500000 0
154312.563000 496308.063000 -3.458000 0
154312.641000 496308.406000 -3.488000 0
154312.734000 496308.719000 -3.508000 0
154312.813000 496309.031000 -3.462000 0
154312.891000 496309.375000 -3.530000 0
154312.969000 496309.688000 -3.565000 0
154313.063000 496310.031000 -3.526000 0
154313.141000 496310.344000 -3.487000 0
154313.234000 496310.688000 -3.427000 0
154313.313000 496310.969000 -3.475000 0
154313.391000 496311.313000 -3.490000 0
154313.469000 496311.625000 -3.546000 0
154313.547000 496311.906000 -3.506000 0
154313.641000 496312.250000 -3.491000 0
154313.719000 496312.563000 -3.475000 0
154313.797000 496312.875000 -3.479000 0
154313.875000 496313.188000 -3.546000 0
154314.016000 496313.750000 -1.438000 0
154313.969000 496313.531000 -3.517000 0
154314.047000 496313.844000 -3.421000 0
154314.125000 496314.156000 -3.494000 0
154314.219000 496314.500000 -3.524000 0
154314.297000 496314.844000 -3.358000 0
154314.375000 496315.125000 -3.587000 0
154314.500000 496315.594000 -2.045000 0
154314.453000 496315.438000 -3.624000 0
154314.547000 496315.781000 -3.505000 0
154314.625000 496316.094000 -3.508000 0
154314.750000 496316.594000 -1.960000 0
154314.719000 496316.438000 -3.510000 0
154314.875000 496317.094000 -3.620000 0
154314.953000 496317.406000 -3.627000 0
154315.047000 496317.719000 -3.619000 0
154315.109000 496318.031000 -3.605000 0
154315.203000 496318.375000 -3.522000 0
154315.297000 496318.719000 -3.554000 0
154315.375000 496319.031000 -3.537000 0
154309.453000 496294.250000 -3.576000 0
154309.547000 496294.594000 -3.561000 0
154309.625000 496294.906000 -3.571000 0
154309.719000 496295.250000 -3.564000 0
154309.875000 496295.875000 -3.540000 0
154309.953000 496296.188000 -3.511000 0
154310.094000 496296.750000 -1.715000 0
154310.047000 496296.563000 -3.488000 0
154310.125000 496296.875000 -3.466000 0
154310.203000 496297.188000 -3.468000 0
154310.297000 496297.531000 -3.528000 0
154310.375000 496297.844000 -3.663000 0
154310.453000 496298.156000 -3.639000 0
154310.547000 496298.500000 -3.604000 0
154310.641000 496298.844000 -3.552000 0
154310.766000 496299.344000 -1.660000 1
154310.703000 496299.125000 -3.609000 0
154310.844000 496299.656000 -1.842000 1
154310.797000 496299.438000 -3.595000 0
154310.875000 496299.781000 -3.613000 0
154310.953000 496300.094000 -3.574000 0
154311.031000 496300.406000 -3.476000 0
154311.125000 496300.750000 -3.393000 0
154311.203000 496301.063000 -3.501000 0
154311.281000 496301.344000 -3.499000 0
154311.359000 496301.656000 -3.635000 0
154311.453000 496302.031000 -3.509000 0
154311.516000 496302.313000 -3.594000 0
154311.609000 496302.656000 -3.592000 0
154311.703000 496303.000000 -3.588000 0
154311.781000 496303.281000 -3.563000 0
154311.938000 496303.906000 -0.662000 0
154311.859000 496303.594000 -3.515000 0
154311.984000 496304.094000 -2.090000 0
154311.938000 496303.938000 -3.531000 0
154312.031000 496304.281000 -3.578000 0
154312.141000 496304.750000 -2.117000 0
154312.109000 496304.594000 -3.526000 0
154312.203000 496304.938000 -3.571000 0
154312.281000 496305.281000 -3.505000 0
154312.359000 496305.563000 -3.567000 0
154312.438000 496305.906000 -3.462000 0
154312.531000 496306.219000 -3.462000 0
154312.609000 496306.531000 -3.508000 0
154312.703000 496306.875000 -3.484000 0
154312.781000 496307.188000 -3.513000 0
154312.859000 496307.531000 -3.524000 0
154312.938000 496307.844000 -3.532000 0
154313.031000 496308.188000 -3.483000 0
154313.109000 496308.500000 -3.413000 0
154313.188000 496308.813000 -3.478000 0
154313.281000 496309.156000 -3.535000 0
154313.359000 496309.469000 -3.591000 0
154313.438000 496309.781000 -3.510000 0
154313.516000 496310.094000 -3.539000 0
154313.672000 496310.719000 -0.703000 0
154313.609000 496310.438000 -3.471000 0
154313.688000 496310.719000 -3.471000 0
154313.766000 496311.063000 -3.391000 0
154313.891000 496311.531000 -2.106000 0
154313.859000 496311.375000 -3.542000 0
154313.938000 496311.688000 -3.432000 0
154314.016000 496312.000000 -3.522000 0
154314.094000 496312.344000 -3.497000 0
154314.172000 496312.656000 -3.562000 0
154314.266000 496313.000000 -3.390000 0
154314.344000 496313.313000 -3.417000 0
154314.422000 496313.625000 -3.427000 0
154314.516000 496313.938000 -3.351000 0
154314.594000 496314.281000 -3.446000 0
154314.688000 496314.625000 -3.483000 0
154314.766000 496314.906000 -3.534000 0
154314.891000 496315.438000 -1.840000 0
154314.844000 496315.250000 -3.621000 0
154314.938000 496315.594000 -3.540000 0
154315.000000 496315.875000 -3.558000 0
154315.094000 496316.188000 -3.559000 0
154315.172000 496316.531000 -3.630000 0
154315.250000 496316.844000 -3.653000 0
154315.328000 496317.156000 -3.662000 0
154309.875000 496294.375000 -3.618000 0
154309.969000 496294.688000 -3.611000 0
154310.047000 496295.000000 -3.525000 0
154310.125000 496295.344000 -3.509000 0
154310.219000 496295.688000 -3.540000 0
154310.297000 496296.000000 -3.518000 0
154310.375000 496296.313000 -3.441000 0
154310.469000 496296.688000 -3.501000 0
154310.547000 496296.969000 -3.575000 0
154310.641000 496297.313000 -3.386000 0
154310.719000 496297.625000 -3.592000 0
154310.828000 496298.094000 -2.204000 1
154310.797000 496297.938000 -3.673000 0
154310.922000 496298.438000 -2.054000 1
154310.875000 496298.250000 -3.653000 0
154310.984000 496298.719000 -2.344000 1
