152283.813000 497596.875000 -3.458000 0
152283.734000 497596.563000 -3.459000 0
152283.656000 497596.219000 -3.500000 0
152283.578000 497595.875000 -3.349000 0
152283.484000 497595.500000 -2.450000 0
152283.438000 497595.313000 -3.524000 0
152283.344000 497594.969000 -3.589000 0
152283.234000 497594.531000 -2.415000 1
152283.266000 497594.625000 -3.434000 0
152283.188000 497594.313000 -3.519000 0
152283.094000 497593.875000 -2.502000 1
152283.109000 497593.969000 -3.508000 0
152283.031000 497593.625000 -3.464000 0
152282.953000 497593.313000 -3.391000 0
152282.859000 497592.969000 -3.185000 1
152282.781000 497592.625000 -3.034000 1
152282.703000 497592.344000 -3.077000 1
152282.625000 497591.969000 -2.766000 1
152282.484000 497591.406000 -3.580000 0
152282.406000 497591.125000 -3.482000 0
152282.328000 497590.781000 -3.480000 0
152282.250000 497590.469000 -3.544000 0
152282.172000 497590.156000 -3.523000 0
152282.094000 497589.844000 -3.591000 0
152282.016000 497589.500000 -3.635000 0
152281.938000 497589.219000 -3.545000 0
152281.813000 497588.719000 -1.799000 0
152281.859000 497588.875000 -3.537000 0
152281.766000 497588.531000 -3.481000 0
152281.688000 497588.219000 -3.475000 0
152281.625000 497587.938000 -3.595000 0
152281.531000 497587.563000 -3.622000 0
152281.453000 497587.250000 -3.588000 0
152281.375000 497586.938000 -3.548000 0
152281.297000 497586.594000 -3.653000 0
152281.219000 497586.281000 -3.621000 0
152286.891000 497610.625000 0.165000 1
152286.750000 497610.031000 -0.433000 1
152286.781000 497610.219000 -2.108000 0
152286.813000 497610.344000 -3.524000 0
152286.641000 497609.625000 0.373000 1
152286.688000 497609.813000 -1.444000 1
152286.750000 497610.063000 -3.597000 0
152286.578000 497609.344000 0.095000 1
152286.672000 497609.719000 -3.651000 0
152286.594000 497609.406000 -3.721000 0
152286.422000 497608.750000 -3.696000 0
152286.344000 497608.406000 -3.703000 0
152286.266000 497608.094000 -3.671000 0
152286.109000 497607.438000 -0.285000 1
152286.188000 497607.781000 -3.640000 0
152286.031000 497607.125000 -0.641000 1
152286.094000 497607.438000 -3.560000 0
152285.984000 497606.969000 -2.020000 1
152286.031000 497607.125000 -3.653000 0
152285.953000 497606.844000 -3.690000 0
152285.797000 497606.188000 -0.591000 1
152285.875000 497606.500000 -3.708000 0
152285.703000 497605.813000 -0.368000 1
152285.781000 497606.156000 -3.704000 0
152285.656000 497605.594000 -1.281000 1
152285.719000 497605.844000 -3.686000 0
152285.594000 497605.344000 -1.880000 1
152285.625000 497605.531000 -3.667000 0
152285.547000 497605.188000 -3.666000 0
152285.469000 497604.844000 -3.436000 0
152285.281000 497604.125000 -2.729000 0
152285.234000 497603.875000 -3.462000 0
152285.156000 497603.563000 -3.537000 0
152285.063000 497603.219000 -3.523000 0
152284.984000 497602.906000 -3.408000 0
152284.922000 497602.625000 -3.488000 0
152284.844000 497602.281000 -3.379000 0
152284.750000 497601.969000 -3.507000 0
152284.688000 497601.688000 -3.471000 0
152284.609000 497601.344000 -3.480000 0
152284.500000 497600.906000 -2.637000 1
152284.516000 497601.000000 -3.492000 0
152284.453000 497600.719000 -3.378000 0
152284.375000 497600.375000 -3.411000 0
152284.281000 497600.031000 -3.462000 0
152284.188000 497599.625000 -2.504000 1
152284.219000 497599.750000 -3.526000 0
152284.141000 497599.438000 -3.563000 0
152284.047000 497599.094000 -3.515000 0
152283.969000 497598.750000 -3.559000 0
152283.891000 497598.438000 -3.554000 0
152283.813000 497598.094000 -3.513000 0
152283.734000 497597.750000 -3.530000 0
152283.656000 497597.469000 -3.524000 0
152283.563000 497597.125000 -3.400000 0
152283.484000 497596.813000 -3.449000 0
152283.422000 497596.500000 -3.479000 0
152283.313000 497596.063000 -2.219000 1
152283.328000 497596.188000 -3.507000 0
152283.250000 497595.844000 -3.481000 0
152283.094000 497595.188000 -3.471000 0
152283.016000 497594.844000 -3.523000 0
152282.922000 497594.469000 -2.799000 0
152282.859000 497594.219000 -3.469000 0
152282.781000 497593.906000 -3.495000 0
152282.703000 497593.563000 -3.508000 0
152282.625000 497593.250000 -3.263000 1
152282.531000 497592.938000 -3.294000 0
152282.453000 497592.594000 -3.137000 1
152282.391000 497592.313000 -3.054000 1
152282.297000 497591.969000 -3.017000 1
152282.156000 497591.375000 -3.483000 0
152282.078000 497591.063000 -3.411000 0
152282.000000 497590.719000 -3.533000 0
152281.922000 497590.406000 -3.527000 0
152281.844000 497590.094000 -3.535000 0
152281.766000 497589.750000 -3.604000 0
152281.688000 497589.438000 -3.604000 0
152281.609000 497589.125000 -3.515000 0
152281.516000 497588.781000 -3.547000 0
152281.438000 497588.469000 -3.483000 0
152281.359000 497588.156000 -3.546000 0
152281.281000 497587.813000 -3.608000 0
152281.203000 497587.469000 -3.590000 0
152286.516000 497610.688000 -0.473000 1
152286.500000 497610.656000 -3.285000 0
152286.422000 497610.344000 -3.541000 0
152286.344000 497610.031000 -3.661000 0
152286.172000 497609.281000 0.209000 1
152286.203000 497609.469000 -1.573000 0
152286.266000 497609.688000 -3.630000 0
152286.094000 497608.969000 0.144000 1
152286.016000 497608.625000 0.309000 1
152286.109000 497609.063000 -3.656000 0
152286.031000 497608.750000 -3.615000 0
152285.844000 497607.969000 0.611000 1
152285.891000 497608.125000 -0.967000 1
152285.953000 497608.438000 -3.726000 0
152285.797000 497607.781000 -0.576000 1
152285.844000 497607.969000 -2.504000 0
152285.875000 497608.094000 -3.688000 0
152285.797000 497607.781000 -3.691000 0
152285.703000 497607.438000 -3.685000 0
152285.625000 497607.125000 -3.755000 0
152285.547000 497606.813000 -3.658000 0
152285.469000 497606.469000 -3.723000 0
152285.328000 497605.906000 -1.368000 1
152285.391000 497606.156000 -3.638000 0
152285.313000 497605.813000 -3.648000 0
152285.188000 497605.313000 -1.772000 1
152285.234000 497605.500000 -3.647000 0
152285.141000 497605.156000 -3.608000 0
152285.063000 497604.844000 -3.386000 0
152284.984000 497604.531000 -3.451000 0
152284.906000 497604.188000 -3.459000 0
152284.828000 497603.875000 -3.046000 0
152284.750000 497603.563000 -3.436000 0
152284.672000 497603.250000 -3.500000 0
152284.578000 497602.875000 -2.656000 0
152284.531000 497602.625000 -3.478000 0
152284.438000 497602.313000 -3.532000 0
152284.359000 497601.969000 -3.539000 0
152284.281000 497601.656000 -3.450000 0
152284.203000 497601.313000 -3.487000 0
152284.031000 497600.656000 -2.966000 1
152283.938000 497600.219000 -2.091000 1
152283.969000 497600.344000 -3.506000 0
152283.891000 497600.000000 -3.571000 0
152283.719000 497599.375000 -3.505000 0
152283.641000 497599.031000 -3.424000 0
152283.563000 497598.750000 -3.519000 0
152283.500000 497598.438000 -3.535000 0
152283.406000 497598.094000 -3.512000 0
152283.328000 497597.750000 -3.525000 0
152283.250000 497597.469000 -3.436000 0
152283.125000 497596.938000 -1.668000 1
152283.172000 497597.094000 -3.519000 0
152283.094000 497596.781000 -3.503000 0
152283.016000 497596.469000 -3.442000 0
152282.938000 497596.125000 -3.467000 0
152282.844000 497595.781000 -3.399000 0
152282.766000 497595.500000 -3.327000 0
152282.688000 497595.156000 -3.472000 0
152282.609000 497594.844000 -3.426000 0
152282.531000 497594.563000 -3.467000 0
152282.469000 497594.250000 -3.523000 0
152282.391000 497593.906000 -3.462000 0
152282.297000 497593.594000 -3.452000 0
152282.219000 497593.250000 -3.180000 1
152282.141000 497592.969000 -3.310000 0
152282.063000 497592.625000 -3.299000 0
152281.984000 497592.313000 -3.224000 0
152281.906000 497591.969000 -3.260000 0
152281.797000 497591.500000 -1.841000 1
152281.828000 497591.656000 -3.386000 0
152281.750000 497591.344000 -3.403000 0
152281.688000 497591.063000 -3.482000 0
152281.563000 497590.563000 -2.008000 1
152281.594000 497590.688000 -3.504000 0
152281.484000 497590.250000 -2.043000 1
152281.516000 497590.406000 -3.547000 0
152281.438000 497590.063000 -3.510000 0
152281.359000 497589.719000 -3.537000 0
152281.266000 497589.406000 -3.619000 0
152281.172000 497589.000000 -2.411000 0
152281.203000 497589.094000 -3.582000 0
152286.156000 497610.813000 -1.254000 0
152286.141000 497610.750000 -3.558000 0
152286.063000 497610.438000 -3.660000 0
152285.906000 497609.750000 -0.097000 1
152285.984000 497610.156000 -3.708000 0
152285.844000 497609.500000 -0.921000 1
152285.766000 497609.219000 -1.376000 0
152285.828000 497609.469000 -3.746000 0
152285.750000 497609.156000 -3.675000 0
152285.672000 497608.813000 -3.720000 0
152285.484000 497608.094000 0.085000 1
152285.578000 497608.469000 -3.586000 0
152285.500000 497608.156000 -3.537000 0
152285.328000 497607.469000 0.183000 1
152285.375000 497607.594000 -1.280000 1
152285.406000 497607.750000 -2.592000 1
152285.422000 497607.875000 -3.680000 0
152285.266000 497607.188000 -3.631000 0
152285.188000 497606.875000 -3.609000 0
152285.109000 497606.531000 -3.560000 0
152284.953000 497605.875000 -0.249000 1
152285.031000 497606.219000 -3.677000 0
152284.875000 497605.594000 -0.341000 1
152284.953000 497605.938000 -3.702000 0
152284.828000 497605.406000 -1.509000 1
152284.875000 497605.625000 -3.625000 0
152284.734000 497605.063000 -1.437000 1
152284.797000 497605.281000 -3.515000 0
152284.719000 497604.969000 -3.494000 0
152284.641000 497604.625000 -3.293000 0
152284.547000 497604.281000 -3.326000 0
152284.484000 497604.000000 -3.418000 0
152284.391000 497603.656000 -3.222000 0
152284.313000 497603.313000 -3.471000 0
152284.234000 497603.000000 -3.225000 0
152284.078000 497602.375000 -3.453000 0
152284.000000 497602.063000 -3.517000 0
152283.922000 497601.719000 -3.433000 0
152283.844000 497601.406000 -3.522000 0
152283.750000 497601.031000 -3.461000 0
152283.609000 497600.438000 -3.535000 0
152283.531000 497600.125000 -3.546000 0
152283.453000 497599.813000 -3.539000 0
152283.359000 497599.469000 -3.385000 0
152283.281000 497599.156000 -3.495000 0
152283.203000 497598.813000 -3.483000 0
152283.125000 497598.500000 -3.565000 0
152283.047000 497598.156000 -3.524000 0
152282.969000 497597.844000 -3.491000 0
152282.891000 497597.531000 -3.482000 0
152282.766000 497597.031000 -1.800000 1
152282.813000 497597.188000 -3.494000 0
152282.719000 497596.844000 -3.437000 0
152282.625000 497596.438000 -2.029000 1
152282.656000 497596.563000 -3.499000 0
152282.578000 497596.250000 -3.464000 0
152282.500000 497595.906000 -3.483000 0
152282.422000 497595.625000 -3.358000 0
152282.344000 497595.313000 -3.530000 0
152282.266000 497594.969000 -3.518000 0
152282.188000 497594.656000 -3.498000 0
152282.109000 497594.344000 -3.519000 0
152282.031000 497594.031000 -3.470000 0
152281.938000 497593.688000 -3.394000 0
152281.859000 497593.344000 -3.183000 1
152281.781000 497593.031000 -3.330000 0
152281.703000 497592.719000 -3.380000 0
152281.625000 497592.406000 -3.312000 0
152281.547000 497592.063000 -3.176000 1
152281.438000 497591.625000 -2.282000 0
152281.469000 497591.719000 -3.287000 0
152281.391000 497591.406000 -3.361000 0
152281.281000 497591.000000 -2.317000 1
152281.313000 497591.094000 -3.423000 0
152281.203000 497590.625000 -2.036000 1
152281.234000 497590.781000 -3.518000 0
152281.156000 497590.469000 -3.544000 0
152285.766000 497610.750000 0.173000 1
152285.688000 497610.406000 0.213000 1
152285.781000 497610.813000 -3.631000 0
152285.594000 497610.031000 0.474000 1
152285.703000 497610.469000 -3.441000 1
152285.625000 497610.156000 -3.458000 1
152285.453000 497609.469000 -0.170000 1
152285.547000 497609.844000 -3.618000 0
152285.453000 497609.469000 -3.338000 1
152285.313000 497608.875000 -0.418000 1
152285.391000 497609.188000 -3.475000 1
152285.313000 497608.875000 -3.684000 0
152285.141000 497608.156000 -0.018000 1
152285.219000 497608.531000 -3.674000 0
152285.156000 497608.250000 -3.655000 0
152285.047000 497607.813000 -2.511000 1
152285.078000 497607.938000 -3.611000 0
152284.984000 497607.563000 -3.358000 1
152284.844000 497607.000000 -0.764000 1
152284.875000 497607.125000 -1.909000 1
152284.906000 497607.250000 -3.160000 1
152284.766000 497606.656000 -3.481000 1
152284.688000 497606.313000 -3.627000 0
152284.531000 497605.719000 -0.688000 1
152284.609000 497606.031000 -3.591000 0
152284.469000 497605.438000 -1.154000 1
152284.531000 497605.719000 -3.668000 0
152284.438000 497605.344000 -3.581000 0
152284.359000 497605.031000 -3.444000 0
152284.281000 497604.719000 -3.574000 0
152284.203000 497604.375000 -3.292000 0
152284.125000 497604.063000 -3.440000 0
152284.047000 497603.719000 -3.311000 0
152283.953000 497603.375000 -3.332000 0
152283.875000 497603.063000 -3.352000 0
152283.797000 497602.750000 -3.412000 0
152283.719000 497602.406000 -3.353000 0
152283.641000 497602.094000 -3.487000 0
152283.563000 497601.813000 -3.532000 0
152283.484000 497601.469000 -3.442000 0
152283.344000 497600.875000 -0.875000 0
152283.406000 497601.125000 -3.477000 0
152283.328000 497600.813000 -3.444000 0
152283.250000 497600.500000 -3.493000 0
152283.109000 497599.938000 -1.380000 0
152283.156000 497600.156000 -3.498000 0
152283.094000 497599.844000 -3.518000 0
152283.016000 497599.531000 -3.465000 0
152282.922000 497599.188000 -3.553000 0
152282.844000 497598.875000 -3.534000 0
152282.766000 497598.563000 -3.493000 0
152282.688000 497598.219000 -3.464000 0
152282.609000 497597.906000 -3.420000 0
152282.516000 497597.500000 -2.225000 1
152282.547000 497597.625000 -3.529000 0
152282.469000 497597.313000 -3.444000 0
152282.375000 497596.938000 -3.454000 0
152282.313000 497596.656000 -3.463000 0
152282.234000 497596.344000 -3.461000 0
152282.141000 497596.000000 -3.557000 0
152282.063000 497595.688000 -3.410000 0
152281.938000 497595.188000 -1.291000 1
152282.000000 497595.406000 -3.523000 0
152281.906000 497595.031000 -3.570000 0
152281.828000 497594.719000 -3.328000 0
152281.766000 497594.438000 -3.446000 0
152281.656000 497594.000000 -2.420000 1
152281.578000 497593.688000 -2.847000 1
152281.516000 497593.406000 -3.181000 1
152281.422000 497593.094000 -3.335000 0
152281.344000 497592.750000 -3.456000 0
152281.266000 497592.438000 -3.336000 0
152281.188000 497592.125000 -3.199000 0
152285.266000 497610.250000 0.073000 1
152285.344000 497610.625000 -3.403000 1
152285.281000 497610.344000 -3.563000 0
152285.109000 497609.625000 -0.257000 1
152285.172000 497609.906000 -2.695000 1
152285.125000 497609.688000 -3.695000 0
152284.969000 497609.031000 -0.370000 1
152285.047000 497609.375000 -3.675000 0
152284.969000 497609.094000 -3.656000 0
152284.828000 497608.500000 -1.207000 1
152284.875000 497608.719000 -3.165000 1
152284.734000 497608.094000 -0.600000 1
152284.781000 497608.313000 -2.752000 1
152284.656000 497607.781000 -0.469000 1
152284.703000 497607.969000 -2.263000 1
152284.734000 497608.125000 -3.624000 0
152284.578000 497607.469000 -0.235000 1
152284.609000 497607.625000 -1.778000 1
152284.656000 497607.813000 -3.664000 0
152284.578000 497607.469000 -3.665000 0
152284.500000 497607.156000 -3.629000 0
152284.328000 497606.500000 -3.664000 0
152284.125000 497605.656000 -1.401000 1
152284.188000 497605.906000 -3.668000 0
152284.094000 497605.563000 -3.648000 0
152284.016000 497605.188000 -3.543000 0
152283.938000 497604.875000 -3.492000 0
152283.844000 497604.531000 -3.409000 0
152283.766000 497604.188000 -3.456000 0
152283.609000 497603.563000 -3.407000 0
152283.531000 497603.250000 -3.406000 0
152283.453000 497602.938000 -3.349000 0
152283.375000 497602.594000 -3.287000 0
152283.297000 497602.281000 -3.488000 0
152283.219000 497601.938000 -3.522000 0
152283.141000 497601.656000 -3.529000 0
152283.047000 497601.281000 -3.494000 0
152282.969000 497600.969000 -3.448000 0
152282.891000 497600.656000 -3.407000 0
152282.797000 497600.219000 -2.290000 1
152282.828000 497600.344000 -3.530000 0
152282.734000 497600.000000 -3.552000 0
152282.672000 497599.688000 -3.493000 0
152282.563000 497599.281000 -2.400000 1
152282.594000 497599.406000 -3.566000 0
152282.516000 497599.063000 -3.535000 0
152282.438000 497598.781000 -3.554000 0
152282.359000 497598.438000 -3.520000 0
152282.266000 497598.094000 -3.503000 0
152282.188000 497597.781000 -3.415000 0
152282.125000 497597.500000 -3.565000 0
152282.047000 497597.156000 -3.523000 0
152281.953000 497596.813000 -3.495000 0
152281.891000 497596.500000 -3.554000 0
152281.797000 497596.188000 -3.523000 0
152281.719000 497595.844000 -3.497000 0
152281.594000 497595.344000 -1.515000 1
152281.641000 497595.531000 -3.542000 0
152281.516000 497595.031000 -1.754000 1
152281.563000 497595.219000 -3.556000 0
152281.469000 497594.875000 -3.483000 0
152281.391000 497594.531000 -3.335000 0
152281.297000 497594.125000 -2.639000 1
152281.313000 497594.219000 -3.559000 0
152281.219000 497593.813000 -2.696000 1
152281.156000 497593.563000 -3.345000 0
152284.859000 497610.313000 -0.591000 1
152284.938000 497610.625000 -3.691000 0
152284.859000 497610.313000 -3.568000 1
152284.703000 497609.656000 -0.439000 1
152284.781000 497610.000000 -3.679000 0
152284.703000 497609.656000 -3.643000 0
152284.594000 497609.219000 -2.295000 1
152284.625000 497609.375000 -3.698000 0
152284.469000 497608.688000 -0.360000 1
152284.500000 497608.844000 -1.938000 1
152284.547000 497609.031000 -3.662000 0
152284.391000 497608.375000 -0.418000 1
152284.469000 497608.719000 -3.663000 0
152284.391000 497608.375000 -3.738000 0
152284.281000 497607.938000 -2.535000 1
152284.219000 497607.719000 -3.565000 0
152284.141000 497607.406000 -3.577000 0
152284.000000 497606.813000 -0.990000 1
152284.063000 497607.094000 -3.662000 0
152283.922000 497606.500000 -0.925000 1
152283.984000 497606.750000 -3.506000 0
152283.906000 497606.406000 -3.636000 0
152283.828000 497606.094000 -3.737000 0
152283.703000 497605.594000 -1.865000 1
152283.734000 497605.781000 -3.599000 0
152283.625000 497605.313000 -2.323000 1
152283.656000 497605.438000 -3.551000 0
152283.578000 497605.125000 -3.584000 0
152283.516000 497604.844000 -3.560000 0
152283.422000 497604.469000 -3.447000 0
152283.344000 497604.125000 -3.423000 0
152283.266000 497603.844000 -3.319000 0
152283.188000 497603.500000 -3.365000 0
152283.094000 497603.156000 -3.434000 0
152283.016000 497602.844000 -3.403000 0
152282.938000 497602.531000 -3.404000 0
152282.859000 497602.188000 -3.304000 0
152282.781000 497601.875000 -3.502000 0
152282.703000 497601.563000 -3.512000 0
152282.625000 497601.250000 -3.508000 0
152282.547000 497600.938000 -3.436000 0
152282.484000 497600.625000 -3.434000 0
152282.406000 497600.313000 -3.582000 0
152282.313000 497599.969000 -3.428000 0
152282.219000 497599.563000 -2.561000 1
152282.250000 497599.688000 -3.560000 0
152282.109000 497599.125000 -1.141000 0
152282.172000 497599.344000 -3.565000 0
152282.078000 497599.000000 -3.505000 0
152281.984000 497598.594000 -2.082000 1
152282.016000 497598.719000 -3.534000 0
152281.922000 497598.406000 -3.546000 0
152281.844000 497598.031000 -3.408000 0
152281.766000 497597.750000 -3.433000 0
152281.703000 497597.438000 -3.517000 0
152281.578000 497597.000000 -2.399000 1
152281.609000 497597.094000 -3.558000 0
152281.531000 497596.750000 -3.543000 0
152281.422000 497596.281000 -1.894000 1
152281.453000 497596.469000 -3.545000 0
152281.359000 497596.094000 -3.564000 0
152281.281000 497595.781000 -3.523000 0
152281.172000 497595.344000 -2.055000 1
152281.219000 497595.469000 -3.537000 0
152284.500000 497610.531000 -0.609000 1
152284.578000 497610.844000 -3.602000 0
152284.422000 497610.219000 -0.724000 1
152284.500000 497610.531000 -3.669000 0
152284.359000 497609.938000 -1.038000 1
152284.422000 497610.219000 -3.533000 0
152284.266000 497609.594000 -0.922000 1
152284.313000 497609.781000 -2.530000 1
152284.188000 497609.250000 -0.669000 1
152284.250000 497609.563000 -3.654000 0
152284.188000 497609.250000 -3.642000 0
152284.031000 497608.594000 -0.447000 1
152284.109000 497608.938000 -3.713000 0
152283.938000 497608.250000 -0.473000 1
152283.859000 497607.938000 -0.514000 1
152283.703000 497607.281000 -3.652000 0
152283.625000 497607.000000 -3.606000 0
152283.469000 497606.313000 -0.422000 1
152283.547000 497606.656000 -3.605000 0
152283.391000 497606.000000 -0.529000 1
152283.469000 497606.313000 -3.676000 0
152283.391000 497606.000000 -3.650000 0
152283.281000 497605.563000 -2.485000 1
152283.203000 497605.250000 -2.681000 1
152283.141000 497605.000000 -3.510000 0
152283.063000 497604.688000 -3.497000 0
152282.984000 497604.344000 -3.513000 0
152282.891000 497604.031000 -3.416000 0
152282.828000 497603.719000 -3.425000 0
152282.734000 497603.375000 -3.459000 0
152282.656000 497603.063000 -3.308000 0
152282.594000 497602.781000 -3.420000 0
152282.500000 497602.438000 -3.319000 0
152282.422000 497602.125000 -3.416000 0
152282.359000 497601.813000 -3.459000 0
152282.281000 497601.500000 -3.498000 0
152282.188000 497601.156000 -3.512000 0
152282.125000 497600.844000 -3.452000 0
152282.016000 497600.438000 -2.473000 1
152282.047000 497600.563000 -3.523000 0
152281.953000 497600.188000 -3.541000 0
152281.844000 497599.750000 -2.211000 1
152281.875000 497599.875000 -3.538000 0
152281.719000 497599.250000 -3.466000 0
152281.641000 497598.938000 -3.562000 0
152281.531000 497598.469000 -2.247000 0
152281.563000 497598.625000 -3.544000 0
152281.484000 497598.281000 -3.543000 0
152281.328000 497597.625000 -0.532000 0
152281.406000 497597.938000 -3.517000 0
152281.328000 497597.625000 -3.535000 0
152281.250000 497597.313000 -3.559000 0
152281.172000 497596.969000 -3.606000 0
152284.125000 497610.719000 -0.968000 1
152284.031000 497610.344000 -0.603000 1
152284.094000 497610.656000 -3.423000 1
152283.938000 497610.031000 -0.421000 1
152284.000000 497610.281000 -2.797000 1
152283.859000 497609.719000 -0.438000 1
152283.938000 497610.031000 -3.544000 0
152283.781000 497609.406000 -0.898000 1
152283.859000 497609.688000 -3.517000 0
152283.781000 497609.344000 -3.548000 0
152283.703000 497609.031000 -3.508000 0
152283.531000 497608.344000 -0.192000 1
152283.609000 497608.688000 -3.479000 0
152283.547000 497608.406000 -3.568000 0
152283.328000 497607.531000 -1.359000 0
152283.391000 497607.781000 -3.646000 0
152283.219000 497607.094000 -0.420000 1
152283.297000 497607.438000 -3.678000 0
152283.234000 497607.156000 -3.692000 0
152283.141000 497606.781000 -3.594000 0
152283.063000 497606.438000 -3.609000 0
152282.906000 497605.844000 -0.709000 1
152282.984000 497606.125000 -3.518000 0
152282.906000 497605.813000 -3.405000 0
152282.797000 497605.375000 -2.801000 1
152282.750000 497605.156000 -3.395000 0
152282.656000 497604.813000 -3.371000 0
152282.578000 497604.500000 -3.463000 0
152282.516000 497604.188000 -3.529000 0
152282.438000 497603.906000 -3.484000 0
152282.359000 497603.594000 -3.435000 0
152282.266000 497603.219000 -3.345000 0
152282.203000 497602.938000 -3.423000 0
152282.125000 497602.625000 -3.318000 0
152282.031000 497602.281000 -3.471000 0
152281.969000 497602.000000 -3.512000 0
152281.891000 497601.656000 -3.480000 0
152281.797000 497601.313000 -3.506000 0
152281.656000 497600.719000 -3.423000 0
152281.563000 497600.344000 -3.511000 0
152281.484000 497600.031000 -3.505000 0
152281.391000 497599.625000 -2.753000 0
152281.234000 497599.031000 -3.510000 0
152281.172000 497598.750000 -3.554000 0
152283.688000 497610.313000 -0.240000 1
152283.750000 497610.656000 -3.272000 1
152283.656000 497610.250000 -2.386000 1
152283.531000 497609.750000 -0.468000 1
152283.609000 497610.063000 -3.454000 0
152283.469000 497609.438000 -0.787000 1
152283.531000 497609.750000 -3.492000 0
152283.453000 497609.406000 -3.545000 0
152283.297000 497608.781000 -3.516000 0
152283.172000 497608.250000 -1.711000 0
152283.219000 497608.438000 -3.673000 0
152283.141000 497608.125000 -3.654000 0
152283.016000 497607.625000 -2.070000 1
152282.891000 497607.125000 -0.379000 1
152282.969000 497607.469000 -3.692000 0
152282.891000 497607.156000 -3.684000 0
152282.781000 497606.688000 -2.266000 0
152282.813000 497606.844000 -3.622000 0
152282.734000 497606.500000 -3.555000 0
152282.594000 497605.906000 -0.775000 1
152282.656000 497606.188000 -3.491000 0
152282.531000 497605.625000 -1.209000 1
152282.578000 497605.875000 -3.560000 0
152282.484000 497605.500000 -3.059000 1
152282.406000 497605.188000 -2.959000 1
152282.266000 497604.594000 -3.322000 0
152282.188000 497604.250000 -3.466000 0
152282.109000 497603.969000 -3.505000 0
152282.031000 497603.625000 -3.470000 0
152281.953000 497603.313000 -3.446000 0
152281.859000 497602.938000 -3.226000 0
152281.797000 497602.656000 -3.460000 0
152281.703000 497602.313000 -3.328000 0
152281.641000 497602.031000 -3.464000 0
152281.563000 497601.688000 -3.478000 0
152281.469000 497601.344000 -3.471000 0
152281.391000 497601.031000 -3.476000 0
152281.313000 497600.719000 -3.494000 0
152281.234000 497600.375000 -3.480000 0
152281.156000 497600.063000 -3.530000 0
152283.438000 497610.844000 -0.134000 1
152283.344000 497610.500000 -0.131000 1
152283.281000 497610.219000 -0.635000 1
152283.359000 497610.531000 -3.695000 0
152283.203000 497609.906000 -0.553000 1
152283.281000 497610.250000 -3.652000 0
152283.125000 497609.625000 -1.111000 1
152283.188000 497609.875000 -3.522000 0
152283.031000 497609.219000 -0.492000 1
152283.109000 497609.563000 -3.571000 0
152282.953000 497608.938000 -0.514000 1
152283.031000 497609.250000 -3.557000 0
152282.875000 497608.594000 -0.478000 1
152282.953000 497608.906000 -3.523000 0
152282.781000 497608.219000 -0.302000 1
152282.875000 497608.594000 -3.679000 0
152282.797000 497608.281000 -3.692000 0
152282.563000 497607.344000 -0.759000 1
152282.641000 497607.625000 -3.663000 0
152282.563000 497607.313000 -3.596000 0
152282.406000 497606.688000 -0.469000 1
152282.484000 497607.031000 -3.582000 0
152282.406000 497606.688000 -3.465000 0
152282.266000 497606.125000 -1.405000 1
152282.313000 497606.344000 -3.527000 0
152282.188000 497605.813000 -1.172000 1
152282.250000 497606.031000 -3.426000 0
152282.172000 497605.750000 -3.498000 0
152282.078000 497605.375000 -3.252000 1
152282.016000 497605.063000 -3.343000 0
152281.922000 497604.719000 -3.196000 0
152281.844000 497604.406000 -3.356000 0
152281.766000 497604.094000 -3.528000 0
152281.688000 497603.781000 -3.437000 0
152281.594000 497603.406000 -2.962000 0
152281.516000 497603.094000 -3.055000 0
152281.453000 497602.781000 -3.356000 0
152281.359000 497602.469000 -3.425000 0
152281.281000 497602.125000 -3.431000 0
152281.188000 497601.750000 -2.510000 0
152283.063000 497610.844000 -3.705000 0
152282.906000 497610.188000 -0.583000 1
152282.984000 497610.531000 -3.733000 0
152282.828000 497609.875000 -0.665000 1
152282.906000 497610.219000 -3.739000 0
152282.766000 497609.625000 -1.208000 1
152282.828000 497609.906000 -3.721000 0
152282.734000 497609.531000 -3.633000 0
152282.594000 497608.906000 -0.517000 1
152282.672000 497609.219000 -3.540000 0
152282.516000 497608.594000 -0.373000 1
152282.594000 497608.938000 -3.656000 0
152282.422000 497608.250000 -0.199000 1
152282.516000 497608.625000 -3.675000 0
152282.438000 497608.313000 -3.687000 0
152282.281000 497607.625000 -0.355000 1
152282.313000 497607.813000 -2.078000 0
152282.359000 497607.969000 -3.656000 0
152282.266000 497607.625000 -3.473000 0
152282.125000 497607.031000 -0.671000 1
152282.203000 497607.313000 -3.539000 0
152282.047000 497606.719000 -0.672000 1
152282.125000 497607.031000 -3.580000 0
152282.047000 497606.688000 -3.482000 0
152281.891000 497606.094000 -0.998000 1
152281.953000 497606.344000 -3.438000 0
152281.875000 497606.031000 -3.489000 0
152281.797000 497605.719000 -3.471000 0
152281.719000 497605.375000 -3.480000 0
152281.641000 497605.063000 -3.425000 0
152281.516000 497604.531000 -1.254000 0
152281.563000 497604.719000 -3.381000 0
152281.469000 497604.375000 -3.399000 0
152281.391000 497604.063000 -3.494000 0
152281.313000 497603.750000 -3.431000 0
152281.234000 497603.406000 -3.444000 0
152281.156000 497603.094000 -3.246000 0
152282.641000 497610.813000 0.213000 1
152282.484000 497610.156000 0.133000 1
152282.578000 497610.563000 -3.657000 0
152282.453000 497610.000000 -1.186000 1
152282.516000 497610.281000 -3.684000 0
152282.438000 497609.969000 -3.580000 0
152282.344000 497609.625000 -3.665000 0
152282.266000 497609.313000 -3.619000 0
152282.141000 497608.719000 -0.934000 1
152282.047000 497608.375000 -0.992000 1
152282.109000 497608.656000 -3.619000 0
152281.984000 497608.125000 -1.602000 1
152282.031000 497608.344000 -3.669000 0
152281.891000 497607.688000 -0.486000 1
152281.969000 497608.031000 -3.652000 0
152281.813000 497607.406000 -0.983000 1
152281.875000 497607.688000 -3.634000 0
152281.734000 497607.094000 -1.077000 1
152281.797000 497607.375000 -3.605000 0
152281.719000 497607.063000 -3.464000 0
152281.641000 497606.719000 -3.462000 0
152281.547000 497606.375000 -3.458000 0
152281.438000 497605.938000 -2.258000 0
152281.469000 497606.063000 -3.543000 0
152281.391000 497605.719000 -3.464000 0
152281.313000 497605.375000 -3.519000 0
152281.234000 497605.063000 -3.482000 0
152281.156000 497604.781000 -3.381000 0
152282.281000 497610.656000 0.277000 1
152282.297000 497610.750000 -3.573000 0
152282.109000 497609.969000 0.369000 1
152282.141000 497610.125000 -1.026000 1
152282.203000 497610.406000 -3.609000 0
152282.031000 497609.688000 0.485000 1
152282.141000 497610.125000 -3.593000 0
152282.047000 497609.781000 -3.624000 0
152281.969000 497609.438000 -3.651000 0
152281.891000 497609.125000 -3.645000 0
152281.750000 497608.531000 -0.752000 1
152281.828000 497608.844000 -3.697000 0
152281.734000 497608.469000 -3.694000 0
152281.578000 497607.813000 -0.565000 1
152281.656000 497608.156000 -3.730000 0
152281.516000 497607.531000 -0.837000 1
152281.578000 497607.844000 -3.690000 0
152281.406000 497607.156000 -0.503000 1
152281.484000 497607.469000 -3.669000 0
152281.406000 497607.156000 -3.539000 0
152281.328000 497606.813000 -3.332000 0
152281.250000 497606.500000 -3.392000 0
152281.172000 497606.188000 -3.329000 0
152281.891000 497610.688000 0.665000 1
152281.813000 497610.344000 0.745000 1
152281.859000 497610.531000 -1.084000 0
152281.906000 497610.781000 -3.492000 0
152281.844000 497610.469000 -3.655000 0
152281.766000 497610.188000 -3.746000 0
152281.609000 497609.500000 -0.406000 1
152281.688000 497609.844000 -3.693000 0
152281.594000 497609.500000 -3.696000 0
152281.516000 497609.188000 -3.696000 0
152281.438000 497608.875000 -3.710000 0
152281.359000 497608.500000 -3.704000 0
152281.281000 497608.188000 -3.711000 0
152281.203000 497607.906000 -3.703000 0
152281.438000 497610.500000 0.459000 1
152281.469000 497610.625000 -0.562000 0
152281.359000 497610.188000 0.079000 1
152281.453000 497610.594000 -3.706000 0
152281.375000 497610.281000 -3.688000 0
152281.219000 497609.625000 -0.264000 1
152281.297000 497609.969000 -3.698000 0
152281.219000 497609.625000 -3.617000 0
152331.141000 497610.500000 -3.508000 0
152331.078000 497610.781000 -3.477000 0
152331.141000 497609.063000 -3.518000 0
152331.047000 497609.406000 -3.555000 0
152330.969000 497609.719000 -3.471000 0
152330.891000 497610.063000 -3.382000 0
152330.797000 497610.406000 -3.539000 0
152330.719000 497610.719000 -3.531000 0
152331.141000 497607.500000 -3.433000 0
152331.047000 497607.844000 -3.497000 0
152330.969000 497608.188000 -3.499000 0
152330.875000 497608.500000 -3.408000 0
152330.797000 497608.844000 -3.561000 0
152330.797000 497608.844000 -0.510000 0
152330.719000 497609.156000 -3.497000 0
152330.641000 497609.469000 -3.453000 0
152330.609000 497609.594000 -1.921000 0
152330.563000 497609.750000 -3.480000 0
152330.484000 497610.094000 -3.250000 0
152330.391000 497610.469000 -3.457000 0
152330.313000 497610.750000 -3.442000 0
152331.141000 497606.156000 -3.534000 0
152331.063000 497606.469000 -3.469000 0
152330.984000 497606.813000 -3.504000 0
152330.891000 497607.125000 -3.377000 0
152330.813000 497607.469000 -3.472000 0
152330.781000 497607.563000 -1.510000 0
152330.734000 497607.781000 -3.470000 0
152330.656000 497608.125000 -3.495000 0
152330.578000 497608.406000 -3.432000 0
152330.500000 497608.719000 -3.479000 0
152330.406000 497609.094000 -3.512000 0
152330.328000 497609.406000 -3.467000 0
152330.250000 497609.719000 -3.437000 0
152330.172000 497610.031000 -3.367000 0
152330.109000 497610.281000 -2.326000 0
152330.078000 497610.406000 -3.459000 0
152330.000000 497610.688000 -3.313000 0
152331.125000 497604.500000 -3.715000 0
152331.047000 497604.844000 -3.605000 0
152330.953000 497605.188000 -3.558000 0
152330.875000 497605.500000 -3.580000 0
152330.797000 497605.813000 -3.519000 0
152330.719000 497606.125000 -3.452000 0
152330.641000 497606.438000 -3.475000 0
152330.563000 497606.750000 -3.469000 0
152330.484000 497607.094000 -3.384000 0
152330.438000 497607.250000 -2.032000 0
152330.406000 497607.406000 -3.517000 0
152330.313000 497607.719000 -3.539000 0
152330.234000 497608.063000 -3.493000 0
152330.156000 497608.406000 -3.388000 0
152330.078000 497608.688000 -3.485000 0
152329.984000 497609.031000 -3.414000 0
152329.906000 497609.375000 -3.510000 0
152329.828000 497609.688000 -3.452000 0
152329.750000 497610.000000 -3.372000 0
152329.672000 497610.313000 -3.385000 0
152329.594000 497610.625000 -3.332000 0
152331.188000 497602.938000 -3.568000 0
152331.109000 497603.281000 -3.569000 0
152331.031000 497603.594000 -3.576000 0
152330.969000 497603.813000 -2.207000 0
152330.938000 497603.938000 -3.539000 0
152330.844000 497604.281000 -3.660000 0
152330.781000 497604.594000 -3.679000 0
152330.703000 497604.906000 -3.590000 0
152330.609000 497605.219000 -3.575000 0
152330.531000 497605.531000 -3.564000 0
152330.453000 497605.875000 -3.541000 0
152330.375000 497606.188000 -3.496000 0
152330.297000 497606.500000 -3.458000 0
152330.219000 497606.813000 -3.421000 0
152330.125000 497607.156000 -3.417000 0
152330.047000 497607.469000 -3.468000 0
152329.969000 497607.813000 -3.517000 0
152329.891000 497608.125000 -3.459000 0
152329.813000 497608.469000 -3.400000 0
152329.734000 497608.750000 -3.478000 0
152329.641000 497609.094000 -3.502000 0
152329.578000 497609.375000 -3.386000 0
152329.500000 497609.688000 -3.403000 0
152329.406000 497610.031000 -3.309000 0
152329.328000 497610.344000 -3.427000 0
152329.250000 497610.656000 -3.428000 0
152331.172000 497601.438000 -3.497000 0
152331.094000 497601.781000 -3.427000 0
152331.000000 497602.125000 -3.547000 0
152330.922000 497602.438000 -3.540000 0
152330.844000 497602.750000 -3.518000 0
152330.766000 497603.094000 -3.570000 0
152330.688000 497603.375000 -3.569000 0
152330.609000 497603.688000 -3.492000 0
152330.516000 497604.063000 -3.592000 0
152330.438000 497604.375000 -3.681000 0
152330.359000 497604.688000 -3.677000 0
152330.281000 497605.031000 -3.526000 0
152330.188000 497605.344000 -3.530000 0
152330.109000 497605.656000 -3.507000 0
152330.031000 497606.000000 -3.480000 0
152329.953000 497606.313000 -3.475000 0
152329.875000 497606.625000 -3.453000 0
152329.797000 497606.938000 -3.441000 0
152329.703000 497607.281000 -3.509000 0
152329.641000 497607.563000 -3.536000 0
152329.563000 497607.875000 -3.478000 0
152329.469000 497608.219000 -3.487000 0
152329.438000 497608.344000 -1.810000 0
152329.391000 497608.531000 -3.497000 0
152329.313000 497608.844000 -3.454000 0
152329.234000 497609.188000 -3.436000 0
152329.156000 497609.500000 -3.482000 0
152329.078000 497609.813000 -3.489000 0
152328.984000 497610.156000 -3.501000 0
152328.906000 497610.469000 -3.428000 0
152328.828000 497610.750000 -3.444000 0
152331.156000 497600.094000 -3.481000 0
152331.125000 497600.250000 -1.999000 0
152331.078000 497600.375000 -3.472000 0
152331.000000 497600.719000 -3.491000 0
152330.906000 497601.063000 -3.447000 0
152330.844000 497601.375000 -3.466000 0
152330.766000 497601.688000 -3.479000 0
152330.672000 497602.031000 -3.533000 0
152330.641000 497602.156000 -1.853000 1
152330.594000 497602.344000 -3.520000 0
152330.547000 497602.500000 -1.932000 1
152330.516000 497602.656000 -3.503000 0
152330.438000 497603.000000 -3.502000 0
152330.391000 497603.125000 -1.677000 1
152330.344000 497603.313000 -3.508000 0
152330.266000 497603.625000 -3.485000 0
152330.234000 497603.813000 -1.627000 1
152330.172000 497604.000000 -3.598000 0
152330.094000 497604.313000 -3.613000 0
152330.016000 497604.625000 -3.707000 0
152329.938000 497604.938000 -3.661000 0
152329.781000 497605.563000 -3.511000 0
152329.703000 497605.875000 -3.452000 0
152329.625000 497606.219000 -3.523000 0
152329.547000 497606.500000 -3.463000 0
152329.469000 497606.844000 -3.456000 0
152329.391000 497607.156000 -3.505000 0
152329.313000 497607.469000 -3.502000 0
152329.234000 497607.781000 -3.469000 0
152329.141000 497608.125000 -3.479000 0
152329.063000 497608.469000 -3.473000 0
152328.984000 497608.781000 -3.458000 0
152328.953000 497608.906000 -1.600000 0
152328.906000 497609.094000 -3.446000 0
152328.828000 497609.406000 -3.438000 0
152328.734000 497609.750000 -3.502000 0
152328.656000 497610.063000 -3.326000 0
152328.578000 497610.406000 -3.401000 0
152328.484000 497610.750000 -3.488000 0
152331.125000 497598.281000 -3.715000 0
152331.047000 497598.625000 -3.672000 0
152330.953000 497598.969000 -3.657000 0
152330.891000 497599.281000 -3.524000 0
152330.813000 497599.594000 -3.462000 0
152330.719000 497599.906000 -3.491000 0
152330.656000 497600.219000 -3.460000 0
152330.563000 497600.531000 -3.508000 0
152330.484000 497600.875000 -3.461000 0
152330.406000 497601.188000 -3.453000 0
152330.328000 497601.500000 -3.469000 0
152330.234000 497601.875000 -3.516000 0
152330.188000 497602.063000 -2.237000 1
152330.156000 497602.188000 -3.548000 0
152330.109000 497602.344000 -2.012000 1
152330.078000 497602.500000 -3.522000 0
152329.984000 497602.844000 -3.480000 0
152329.906000 497603.156000 -3.466000 0
152329.875000 497603.344000 -2.161000 1
152329.828000 497603.469000 -3.555000 0
152329.750000 497603.781000 -3.577000 0
152329.672000 497604.125000 -3.536000 0
152329.594000 497604.438000 -3.566000 0
152329.516000 497604.719000 -3.539000 0
152329.422000 497605.094000 -3.586000 0
152329.344000 497605.406000 -3.660000 0
152329.188000 497606.031000 -3.583000 0
152329.109000 497606.344000 -3.525000 0
152329.031000 497606.656000 -3.559000 0
152328.953000 497607.000000 -3.565000 0
152328.859000 497607.313000 -3.507000 0
152328.797000 497607.594000 -3.465000 0
152328.719000 497607.938000 -3.445000 0
152328.625000 497608.313000 -3.525000 0
152328.547000 497608.625000 -3.418000 0
152328.453000 497608.938000 -3.483000 0
152328.375000 497609.313000 -3.501000 0
152328.297000 497609.594000 -3.434000 0
152328.219000 497609.906000 -3.525000 0
152328.141000 497610.219000 -3.443000 0
152328.063000 497610.563000 -3.504000 0
152331.125000 497596.875000 -3.594000 0
152331.109000 497596.875000 -0.465000 0
152331.063000 497597.094000 -2.643000 0
152330.953000 497597.531000 -3.714000 0
152330.938000 497597.594000 -0.940000 1
152330.859000 497597.875000 -3.708000 0
152330.797000 497598.156000 -3.664000 0
152330.781000 497598.250000 -1.340000 1
152330.719000 497598.469000 -3.666000 0
152330.688000 497598.563000 -1.365000 1
152330.641000 497598.781000 -3.572000 0
152330.547000 497599.094000 -3.524000 0
152330.484000 497599.406000 -3.482000 0
152330.391000 497599.750000 -3.462000 0
152330.313000 497600.063000 -3.288000 0
152330.234000 497600.406000 -3.542000 0
152330.141000 497600.750000 -3.450000 0
152330.063000 497601.031000 -3.344000 0
152329.984000 497601.375000 -3.481000 0
152329.906000 497601.688000 -3.462000 0
152329.828000 497602.031000 -3.463000 0
152329.766000 497602.250000 -2.572000 1
152329.750000 497602.344000 -3.479000 0
152329.703000 497602.500000 -2.159000 1
152329.672000 497602.625000 -3.420000 0
152329.594000 497602.938000 -3.324000 0
152329.516000 497603.281000 -3.456000 0
152329.422000 497603.594000 -3.540000 0
152329.344000 497603.906000 -3.549000 0
152329.313000 497604.063000 -1.639000 0
152329.266000 497604.250000 -3.564000 0
152329.188000 497604.563000 -3.558000 0
152329.109000 497604.875000 -3.452000 0
152329.016000 497605.219000 -3.532000 0
152328.938000 497605.531000 -3.514000 0
152328.859000 497605.844000 -3.680000 0
152328.781000 497606.188000 -3.684000 0
152328.703000 497606.500000 -3.604000 0
152328.625000 497606.813000 -3.546000 0
152328.531000 497607.156000 -3.500000 0
152328.453000 497607.500000 -3.440000 0
152328.375000 497607.813000 -3.425000 0
152328.297000 497608.125000 -3.389000 0
152328.219000 497608.469000 -3.418000 0
152328.141000 497608.750000 -3.433000 0
152328.047000 497609.094000 -3.512000 0
152327.969000 497609.438000 -3.501000 0
152327.891000 497609.719000 -3.470000 0
152327.813000 497610.063000 -3.546000 0
152327.719000 497610.406000 -3.477000 0
152327.641000 497610.719000 -3.500000 0
152331.172000 497594.938000 -3.632000 0
152331.172000 497594.969000 -0.653000 0
152331.094000 497595.250000 -3.631000 0
152331.000000 497595.625000 -3.722000 0
152330.953000 497595.844000 0.597000 1
152330.844000 497596.250000 -3.638000 0
152330.859000 497596.188000 0.296000 1
152330.766000 497596.563000 -3.640000 0
152330.688000 497596.906000 -3.647000 0
152330.672000 497596.969000 -1.430000 1
152330.609000 497597.188000 -3.713000 0
152330.531000 497597.531000 -3.699000 0
152330.438000 497597.875000 -3.696000 0
152330.359000 497598.188000 -3.684000 0
152330.313000 497598.375000 -2.346000 0
152330.281000 497598.500000 -3.574000 0
152330.203000 497598.844000 -3.517000 0
152330.109000 497599.156000 -3.603000 0
152330.047000 497599.469000 -3.457000 0
152329.875000 497600.125000 -3.447000 0
152329.797000 497600.438000 -3.548000 0
152329.719000 497600.781000 -3.482000 0
152329.641000 497601.063000 -3.481000 0
152329.563000 497601.375000 -3.382000 0
152329.484000 497601.688000 -3.403000 0
152329.391000 497602.031000 -3.427000 0
152329.328000 497602.344000 -3.502000 0
152329.266000 497602.563000 -2.614000 0
152329.203000 497602.844000 -1.903000 1
152329.156000 497603.000000 -3.471000 0
152329.078000 497603.313000 -3.522000 0
152329.000000 497603.625000 -3.562000 0
152328.906000 497603.969000 -3.591000 0
152328.828000 497604.281000 -3.574000 0
152328.813000 497604.406000 -1.759000 0
152328.766000 497604.594000 -3.559000 0
152328.672000 497604.906000 -3.489000 0
152328.594000 497605.250000 -3.520000 0
152328.516000 497605.563000 -3.514000 0
152328.469000 497605.781000 -2.149000 0
152328.422000 497605.906000 -3.539000 0
152328.344000 497606.281000 -3.605000 0
152328.266000 497606.563000 -3.641000 0
152328.188000 497606.875000 -3.717000 0
152328.109000 497607.188000 -3.639000 0
152328.016000 497607.531000 -3.661000 0
152327.938000 497607.844000 -3.535000 0
152327.859000 497608.156000 -3.489000 0
152327.781000 497608.469000 -3.396000 0
152327.703000 497608.813000 -3.487000 0
152327.609000 497609.156000 -3.476000 0
152327.531000 497609.469000 -3.525000 0
152327.516000 497609.594000 -1.569000 0
152327.453000 497609.781000 -3.559000 0
152327.375000 497610.094000 -3.460000 0
152327.281000 497610.438000 -3.493000 0
152327.219000 497610.750000 -3.426000 0
152331.141000 497593.625000 -3.768000 0
152331.141000 497593.688000 -0.752000 0
152331.063000 497593.969000 -3.718000 0
152331.094000 497593.875000 0.607000 1
152330.984000 497594.281000 -3.687000 0
152331.031000 497594.125000 1.500000 1
152330.906000 497594.625000 -3.693000 0
152330.813000 497594.938000 -3.701000 0
152330.844000 497594.875000 0.253000 1
152330.750000 497595.250000 -3.707000 0
152330.672000 497595.563000 -3.667000 0
152330.578000 497595.906000 -3.681000 0
152330.609000 497595.813000 0.390000 1
152330.500000 497596.219000 -3.662000 0
152330.531000 497596.125000 0.671000 1
152330.422000 497596.500000 -3.418000 0
152330.344000 497596.875000 -3.673000 0
152330.344000 497596.844000 -0.076000 0
152330.313000 497596.969000 -1.435000 1
152330.266000 497597.188000 -3.672000 0
152330.234000 497597.313000 -1.461000 1
152330.172000 497597.531000 -3.702000 0
152330.141000 497597.656000 -1.638000 1
152330.094000 497597.844000 -3.672000 0
152330.063000 497598.000000 -1.892000 1
152330.016000 497598.188000 -3.655000 0
152329.938000 497598.469000 -3.531000 0
152329.844000 497598.813000 -3.558000 0
152329.766000 497599.125000 -3.569000 0
152329.703000 497599.406000 -3.476000 0
152329.625000 497599.750000 -3.434000 0
152329.547000 497600.063000 -3.466000 0
152329.453000 497600.375000 -3.522000 0
152329.422000 497600.531000 -1.918000 0
152329.375000 497600.688000 -3.554000 0
152329.297000 497601.031000 -3.535000 0
152329.219000 497601.313000 -3.416000 0
152329.141000 497601.625000 -3.464000 0
152329.063000 497601.969000 -3.425000 0
152328.969000 497602.313000 -3.424000 0
152328.813000 497602.938000 -3.499000 0
152328.734000 497603.250000 -3.443000 0
152328.656000 497603.594000 -3.460000 0
152328.563000 497603.938000 -3.592000 0
152328.484000 497604.281000 -3.487000 0
152328.406000 497604.594000 -3.509000 0
152328.375000 497604.719000 -1.809000 0
152328.328000 497604.906000 -3.502000 0
152328.234000 497605.219000 -3.521000 0
152328.172000 497605.500000 -3.449000 0
152328.078000 497605.844000 -3.534000 0
152327.844000 497606.844000 -3.583000 0
152327.750000 497607.188000 -3.646000 0
152327.672000 497607.531000 -3.736000 0
152327.594000 497607.813000 -3.658000 0
152327.500000 497608.156000 -3.622000 0
152327.422000 497608.469000 -3.581000 0
152327.344000 497608.781000 -3.541000 0
152327.266000 497609.094000 -3.481000 0
152327.188000 497609.438000 -3.504000 0
152327.109000 497609.750000 -3.558000 0
152327.031000 497610.063000 -3.535000 0
152326.953000 497610.375000 -3.471000 0
152326.875000 497610.688000 -3.404000 0
152331.141000 497591.938000 -3.722000 0
152331.141000 497591.938000 -0.358000 1
152331.063000 497592.250000 -3.657000 0
152331.063000 497592.219000 0.349000 1
152331.016000 497592.438000 -2.018000 1
152330.984000 497592.531000 -3.147000 0
152330.891000 497592.906000 -3.721000 0
152330.859000 497593.000000 -1.474000 1
152330.813000 497593.219000 -3.768000 0
152330.844000 497593.094000 0.933000 1
152330.734000 497593.531000 -3.692000 0
152330.656000 497593.875000 -3.734000 0
152330.688000 497593.750000 0.780000 1
152330.578000 497594.156000 -3.658000 0
152330.609000 497594.031000 1.514000 1
152330.484000 497594.500000 -3.624000 0
152330.406000 497594.813000 -3.677000 0
152330.328000 497595.156000 -3.663000 0
152330.250000 497595.500000 -3.660000 0
152330.250000 497595.469000 0.077000 1
152330.156000 497595.844000 -3.729000 0
152330.188000 497595.719000 0.565000 1
152330.078000 497596.125000 -3.618000 0
152330.000000 497596.438000 -3.675000 0
152329.953000 497596.625000 -1.990000 1
152329.922000 497596.781000 -3.652000 0
152329.875000 497596.969000 -2.046000 1
152329.844000 497597.094000 -3.531000 0
152329.766000 497597.406000 -3.660000 0
152329.688000 497597.750000 -3.630000 0
152329.609000 497598.031000 -3.561000 0
152329.531000 497598.313000 -3.535000 0
152329.438000 497598.688000 -3.530000 0
152329.359000 497599.000000 -3.487000 0
