154778.141000 497022.781000 -3.560000 0
154778.047000 497022.406000 -3.543000 0
154777.969000 497022.031000 -3.466000 0
154777.875000 497021.688000 -3.537000 0
154777.797000 497021.344000 -3.482000 0
154777.703000 497020.938000 -3.563000 0
154777.625000 497020.625000 -3.525000 0
154777.531000 497020.250000 -3.525000 0
154777.438000 497019.875000 -3.482000 0
154777.359000 497019.563000 -3.444000 0
154777.281000 497019.188000 -3.439000 0
154777.188000 497018.813000 -3.448000 0
154777.094000 497018.438000 -3.410000 0
154777.000000 497018.063000 -3.452000 0
154776.922000 497017.750000 -3.392000 0
154776.844000 497017.375000 -3.334000 0
154776.750000 497017.031000 -3.313000 0
154776.656000 497016.625000 -3.378000 0
154776.563000 497016.219000 -3.396000 0
154776.469000 497015.844000 -3.426000 0
154776.375000 497015.469000 -3.490000 0
154776.281000 497015.063000 -3.502000 0
154776.188000 497014.688000 -3.595000 0
154776.109000 497014.375000 -3.531000 0
154776.016000 497014.000000 -3.467000 0
154776.047000 497014.094000 -2.200000 0
154775.922000 497013.594000 -3.499000 0
154775.844000 497013.250000 -3.519000 0
154775.766000 497012.906000 -3.428000 0
154775.656000 497012.500000 -3.449000 0
154775.578000 497012.188000 -3.360000 0
154775.484000 497011.781000 -3.460000 0
154775.391000 497011.375000 -3.464000 0
154775.313000 497011.031000 -3.462000 0
154775.219000 497010.656000 -3.501000 0
154775.141000 497010.344000 -3.345000 0
154775.031000 497009.906000 -3.500000 0
154774.953000 497009.594000 -3.489000 0
154774.875000 497009.219000 -3.490000 0
154774.766000 497008.813000 -3.513000 0
154774.688000 497008.500000 -3.525000 0
154774.594000 497008.125000 -3.517000 0
154774.516000 497007.750000 -3.435000 0
154774.438000 497007.406000 -3.455000 0
154774.344000 497007.031000 -3.454000 0
154774.250000 497006.625000 -3.420000 0
154774.156000 497006.250000 -3.522000 0
154774.078000 497005.938000 -3.446000 0
154773.969000 497005.500000 -3.483000 0
154773.891000 497005.156000 -3.407000 0
154773.797000 497004.781000 -3.474000 0
154773.703000 497004.375000 -3.465000 0
154773.609000 497003.969000 -3.509000 0
154773.688000 497004.344000 -1.700000 0
154773.516000 497003.625000 -3.538000 0
154773.438000 497003.281000 -3.468000 0
154773.344000 497002.938000 -3.451000 0
154773.266000 497002.563000 -3.464000 0
154773.344000 497002.906000 -1.627000 0
154773.172000 497002.188000 -3.489000 0
154773.078000 497001.781000 -3.470000 0
154772.984000 497001.406000 -3.554000 0
154772.891000 497001.031000 -3.548000 0
154772.797000 497000.625000 -3.522000 0
154772.703000 497000.281000 -3.486000 0
154779.391000 497029.781000 -3.348000 0
154779.297000 497029.406000 -3.317000 0
154779.203000 497029.000000 -3.381000 0
154779.125000 497028.656000 -3.378000 0
154779.016000 497028.250000 -3.481000 0
154778.938000 497027.875000 -3.507000 0
154778.859000 497027.594000 -3.402000 0
154778.766000 497027.219000 -3.341000 0
154778.672000 497026.813000 -3.375000 0
154778.594000 497026.500000 -3.323000 0
154778.484000 497026.063000 -3.503000 0
154778.406000 497025.688000 -3.393000 0
154778.313000 497025.313000 -3.463000 0
154778.219000 497024.938000 -3.544000 0
154778.125000 497024.563000 -3.487000 0
154778.047000 497024.219000 -3.448000 0
154777.953000 497023.844000 -3.494000 0
154777.859000 497023.469000 -3.525000 0
154777.781000 497023.094000 -3.536000 0
154777.703000 497022.781000 -3.446000 0
154777.609000 497022.406000 -3.497000 0
154777.516000 497022.031000 -3.458000 0
154777.438000 497021.688000 -3.457000 0
154777.344000 497021.313000 -3.545000 0
154777.250000 497020.906000 -3.542000 0
154777.172000 497020.563000 -3.573000 0
154777.078000 497020.188000 -3.592000 0
154776.984000 497019.844000 -3.474000 0
154776.906000 497019.469000 -3.476000 0
154776.828000 497019.156000 -3.430000 0
154776.719000 497018.719000 -3.526000 0
154776.641000 497018.406000 -3.359000 0
154776.547000 497018.031000 -3.407000 0
154776.453000 497017.656000 -3.404000 0
154776.375000 497017.281000 -3.353000 0
154776.281000 497016.906000 -3.460000 0
154776.203000 497016.563000 -3.440000 0
154776.109000 497016.188000 -3.392000 0
154776.016000 497015.813000 -3.466000 0
154775.922000 497015.406000 -3.485000 0
154775.828000 497015.031000 -3.479000 0
154775.734000 497014.656000 -3.541000 0
154775.656000 497014.313000 -3.472000 0
154775.563000 497013.906000 -3.495000 0
154775.469000 497013.563000 -3.465000 0
154775.391000 497013.188000 -3.460000 0
154775.297000 497012.813000 -3.458000 0
154775.203000 497012.438000 -3.468000 0
154775.125000 497012.094000 -3.462000 0
154775.172000 497012.281000 -2.056000 0
154775.031000 497011.750000 -3.448000 0
154774.953000 497011.406000 -3.384000 0
154774.859000 497011.000000 -3.500000 0
154774.922000 497011.281000 -1.831000 0
154774.766000 497010.625000 -3.517000 0
154774.688000 497010.281000 -3.424000 0
154774.594000 497009.938000 -3.419000 0
154774.500000 497009.531000 -3.496000 0
154774.406000 497009.156000 -3.521000 0
154774.313000 497008.750000 -3.557000 0
154774.219000 497008.375000 -3.595000 0
154774.141000 497008.031000 -3.563000 0
154774.250000 497008.469000 -1.461000 0
154774.047000 497007.688000 -3.504000 0
154773.969000 497007.344000 -3.473000 0
154773.875000 497006.969000 -3.447000 0
154773.781000 497006.531000 -3.507000 0
154773.688000 497006.188000 -3.477000 0
154773.594000 497005.781000 -3.512000 0
154773.516000 497005.438000 -3.437000 0
154773.438000 497005.156000 -3.307000 0
154773.531000 497005.469000 -1.572000 0
154773.344000 497004.719000 -3.519000 0
154773.250000 497004.313000 -3.474000 0
154773.156000 497003.938000 -3.481000 0
154773.063000 497003.594000 -3.522000 0
154772.969000 497003.219000 -3.460000 0
154772.875000 497002.813000 -3.466000 0
154772.797000 497002.469000 -3.469000 0
154772.703000 497002.094000 -3.512000 0
154772.594000 497001.656000 -3.534000 0
154772.516000 497001.344000 -3.525000 0
154772.422000 497000.938000 -3.573000 0
154772.344000 497000.563000 -3.520000 0
154772.250000 497000.219000 -3.545000 0
154772.250000 497000.219000 -1.728000 0
154779.063000 497029.844000 -3.365000 0
154778.969000 497029.438000 -3.417000 0
154778.875000 497029.063000 -3.421000 0
154778.781000 497028.719000 -3.394000 0
154778.688000 497028.344000 -3.489000 0
154778.609000 497027.969000 -3.405000 0
154778.516000 497027.625000 -3.383000 0
154778.438000 497027.250000 -3.387000 0
154778.344000 497026.875000 -3.361000 0
154778.250000 497026.531000 -3.339000 0
154778.156000 497026.125000 -3.483000 0
154778.281000 497026.625000 -1.062000 0
154778.063000 497025.719000 -3.489000 0
154777.984000 497025.375000 -3.494000 0
154777.891000 497025.031000 -3.532000 0
154777.797000 497024.656000 -3.510000 0
154777.719000 497024.313000 -3.492000 0
154777.641000 497023.969000 -3.434000 0
154777.547000 497023.563000 -3.524000 0
154777.453000 497023.219000 -3.484000 0
154777.375000 497022.906000 -3.355000 0
154777.297000 497022.531000 -3.453000 0
154777.188000 497022.125000 -3.460000 0
154777.109000 497021.781000 -3.356000 0
154777.016000 497021.406000 -3.466000 0
154776.922000 497021.000000 -3.519000 0
154776.844000 497020.656000 -3.471000 0
154776.750000 497020.281000 -3.499000 0
154776.641000 497019.844000 -3.593000 0
154776.563000 497019.500000 -3.512000 0
154776.469000 497019.156000 -3.450000 0
154776.391000 497018.813000 -3.393000 0
154776.313000 497018.469000 -3.339000 0
154776.219000 497018.094000 -3.432000 0
154776.125000 497017.719000 -3.378000 0
154776.031000 497017.313000 -3.407000 0
154775.938000 497016.969000 -3.463000 0
154775.859000 497016.625000 -3.410000 0
154775.766000 497016.188000 -3.468000 0
154775.672000 497015.813000 -3.488000 0
154775.594000 497015.469000 -3.461000 0
154775.500000 497015.094000 -3.407000 0
154775.406000 497014.688000 -3.532000 0
154775.313000 497014.375000 -3.468000 0
154775.234000 497014.000000 -3.425000 0
154775.141000 497013.625000 -3.444000 0
154775.063000 497013.281000 -3.463000 0
154774.984000 497012.938000 -3.433000 0
154775.047000 497013.250000 -1.564000 0
154774.891000 497012.563000 -3.380000 0
154774.797000 497012.219000 -3.352000 0
154774.703000 497011.844000 -3.487000 0
154774.625000 497011.469000 -3.430000 0
154774.531000 497011.094000 -3.482000 0
154774.438000 497010.719000 -3.475000 0
154774.344000 497010.344000 -3.436000 0
154774.422000 497010.625000 -1.786000 0
154774.266000 497010.000000 -3.385000 0
154774.172000 497009.625000 -3.469000 0
154774.078000 497009.250000 -3.466000 0
154773.984000 497008.844000 -3.495000 0
154773.891000 497008.469000 -3.512000 0
154773.969000 497008.781000 -1.666000 0
154773.797000 497008.094000 -3.503000 0
154773.703000 497007.688000 -3.495000 0
154773.625000 497007.344000 -3.522000 0
154773.547000 497007.000000 -3.500000 0
154773.563000 497007.125000 -2.228000 0
154773.453000 497006.625000 -3.469000 0
154773.359000 497006.250000 -3.473000 0
154773.281000 497005.906000 -3.461000 0
154773.188000 497005.500000 -3.477000 0
154773.094000 497005.125000 -3.454000 0
154773.000000 497004.750000 -3.485000 0
154772.906000 497004.344000 -3.515000 0
154772.938000 497004.500000 -2.184000 0
154772.813000 497004.000000 -3.485000 0
154772.734000 497003.625000 -3.515000 0
154772.641000 497003.281000 -3.463000 0
154772.547000 497002.875000 -3.516000 0
154772.453000 497002.531000 -3.507000 0
154772.375000 497002.156000 -3.528000 0
154772.281000 497001.781000 -3.531000 0
154772.188000 497001.438000 -3.547000 0
154772.109000 497001.063000 -3.539000 0
154772.016000 497000.688000 -3.567000 0
154771.938000 497000.344000 -3.485000 0
154778.578000 497029.813000 -3.410000 0
154778.484000 497029.438000 -3.365000 0
154778.391000 497029.063000 -3.355000 0
154778.531000 497029.594000 -0.931000 0
154778.297000 497028.688000 -3.433000 0
154778.375000 497028.938000 -1.687000 0
154778.219000 497028.313000 -3.382000 0
154778.125000 497027.969000 -3.376000 0
154778.047000 497027.625000 -3.366000 0
154777.953000 497027.250000 -3.395000 0
154777.875000 497026.906000 -3.293000 0
154777.781000 497026.563000 -3.343000 0
154777.688000 497026.156000 -3.457000 0
154777.609000 497025.781000 -3.406000 0
154777.516000 497025.406000 -3.478000 0
154777.563000 497025.625000 -2.015000 0
154777.438000 497025.063000 -3.486000 0
154777.344000 497024.688000 -3.485000 0
154777.234000 497024.281000 -3.555000 0
154777.172000 497024.000000 -3.391000 0
154777.063000 497023.563000 -3.513000 0
154776.984000 497023.250000 -3.402000 0
154776.906000 497022.906000 -3.365000 0
154776.813000 497022.500000 -3.422000 0
154776.719000 497022.125000 -3.452000 0
154776.625000 497021.750000 -3.421000 0
154776.547000 497021.406000 -3.387000 0
154776.438000 497020.938000 -3.518000 0
154776.359000 497020.625000 -3.495000 0
154776.266000 497020.281000 -3.519000 0
154776.188000 497019.906000 -3.459000 0
154776.078000 497019.500000 -3.549000 0
154776.000000 497019.156000 -3.519000 0
154775.922000 497018.813000 -3.480000 0
154776.016000 497019.219000 -1.309000 0
154775.828000 497018.406000 -3.459000 0
154775.734000 497018.063000 -3.433000 0
154775.641000 497017.688000 -3.409000 0
154775.547000 497017.313000 -3.453000 0
154775.469000 497016.938000 -3.493000 0
154775.375000 497016.563000 -3.483000 0
154775.281000 497016.188000 -3.430000 0
154775.203000 497015.813000 -3.510000 0
154775.109000 497015.500000 -3.478000 0
154775.031000 497015.125000 -3.429000 0
154774.938000 497014.781000 -3.418000 0
154774.859000 497014.406000 -3.454000 0
154774.766000 497014.063000 -3.393000 0
154774.672000 497013.656000 -3.482000 0
154774.594000 497013.313000 -3.467000 0
154774.500000 497012.969000 -3.426000 0
154774.406000 497012.563000 -3.438000 0
154774.313000 497012.188000 -3.432000 0
154774.406000 497012.531000 -1.657000 0
154774.234000 497011.844000 -3.462000 0
154774.141000 497011.438000 -3.501000 0
154774.047000 497011.063000 -3.492000 0
154773.969000 497010.719000 -3.471000 0
154773.875000 497010.344000 -3.360000 0
154773.781000 497009.969000 -3.379000 0
154773.688000 497009.594000 -3.401000 0
154773.594000 497009.188000 -3.499000 0
154773.719000 497009.719000 -1.167000 0
154773.500000 497008.813000 -3.502000 0
154773.422000 497008.500000 -3.489000 0
154773.344000 497008.125000 -3.417000 0
154773.234000 497007.688000 -3.509000 0
154773.156000 497007.344000 -3.533000 0
154773.063000 497006.969000 -3.549000 0
154772.969000 497006.594000 -3.462000 0
154772.875000 497006.188000 -3.536000 0
154772.781000 497005.844000 -3.551000 0
154772.828000 497006.000000 -2.147000 0
154772.703000 497005.469000 -3.493000 0
154772.609000 497005.125000 -3.486000 0
154772.516000 497004.750000 -3.473000 0
154772.438000 497004.375000 -3.501000 0
154772.344000 497004.000000 -3.506000 0
154772.266000 497003.656000 -3.516000 0
154772.172000 497003.281000 -3.551000 0
154772.063000 497002.875000 -3.559000 0
154771.984000 497002.531000 -3.568000 0
154771.906000 497002.188000 -3.514000 0
154771.797000 497001.781000 -3.595000 0
154771.719000 497001.438000 -3.565000 0
154771.625000 497001.063000 -3.518000 0
154771.531000 497000.688000 -3.508000 0
154771.453000 497000.313000 -3.553000 0
154778.203000 497029.875000 -3.399000 0
154778.109000 497029.469000 -3.404000 0
154778.031000 497029.125000 -3.353000 0
154777.953000 497028.781000 -3.358000 0
154777.844000 497028.406000 -3.433000 0
154777.750000 497028.000000 -3.491000 0
154777.672000 497027.656000 -3.453000 0
154777.594000 497027.344000 -3.366000 0
154777.500000 497026.969000 -3.407000 0
154777.594000 497027.281000 -1.519000 0
154777.422000 497026.594000 -3.364000 0
154777.344000 497026.281000 -3.359000 0
154777.234000 497025.844000 -3.412000 0
154777.391000 497026.438000 -0.836000 0
154777.141000 497025.469000 -3.462000 0
154777.063000 497025.156000 -3.441000 0
154776.969000 497024.750000 -3.488000 0
154776.875000 497024.344000 -3.528000 0
154776.797000 497024.031000 -3.437000 0
154776.703000 497023.625000 -3.467000 0
154776.609000 497023.281000 -3.357000 0
154776.531000 497022.906000 -3.409000 0
154776.594000 497023.156000 -1.757000 0
154776.438000 497022.531000 -3.409000 0
154776.344000 497022.156000 -3.443000 0
154776.516000 497022.844000 -0.766000 0
154776.266000 497021.813000 -3.452000 0
154776.172000 497021.469000 -3.408000 0
154776.063000 497021.031000 -3.509000 0
154775.984000 497020.688000 -3.516000 0
154775.891000 497020.313000 -3.495000 0
154775.813000 497019.938000 -3.459000 0
154775.719000 497019.563000 -3.496000 0
154775.625000 497019.188000 -3.564000 0
154775.531000 497018.813000 -3.483000 0
154775.438000 497018.438000 -3.518000 0
154775.375000 497018.125000 -3.413000 0
154775.281000 497017.750000 -3.471000 0
154775.406000 497018.281000 -1.084000 0
154775.188000 497017.375000 -3.455000 0
154775.109000 497017.031000 -3.504000 0
154775.016000 497016.688000 -3.443000 0
154774.938000 497016.313000 -3.403000 0
154774.844000 497015.938000 -3.430000 0
154774.766000 497015.594000 -3.484000 0
154774.656000 497015.219000 -3.451000 0
154774.578000 497014.875000 -3.393000 0
154774.469000 497014.438000 -3.615000 0
154774.391000 497014.063000 -3.515000 0
154774.313000 497013.719000 -3.475000 0
154774.234000 497013.406000 -3.413000 0
154774.141000 497013.031000 -3.419000 0
154774.031000 497012.594000 -3.472000 0
154773.953000 497012.250000 -3.465000 0
154773.844000 497011.844000 -3.519000 0
154773.750000 497011.438000 -3.486000 0
154773.672000 497011.094000 -3.506000 0
154773.594000 497010.750000 -3.502000 0
154773.672000 497011.063000 -1.675000 0
154773.516000 497010.438000 -3.359000 0
154773.422000 497010.063000 -3.321000 0
154773.328000 497009.688000 -3.425000 0
154773.234000 497009.281000 -3.461000 0
154773.125000 497008.875000 -3.546000 0
154773.063000 497008.563000 -3.390000 0
154772.953000 497008.156000 -3.437000 0
154772.859000 497007.750000 -3.495000 0
154772.953000 497008.125000 -1.659000 0
154772.781000 497007.375000 -3.525000 0
154772.688000 497007.000000 -3.552000 0
154772.594000 497006.656000 -3.483000 0
154772.516000 497006.281000 -3.527000 0
154772.672000 497006.906000 -0.983000 0
154772.422000 497005.938000 -3.526000 0
154772.344000 497005.563000 -3.475000 0
154772.266000 497005.281000 -3.334000 0
154772.156000 497004.844000 -3.505000 0
154772.078000 497004.500000 -3.455000 0
154771.984000 497004.094000 -3.531000 0
154771.891000 497003.750000 -3.557000 0
154771.797000 497003.375000 -3.559000 0
154771.719000 497003.000000 -3.485000 0
154771.625000 497002.625000 -3.523000 0
154771.688000 497002.875000 -1.964000 0
154771.531000 497002.250000 -3.576000 0
154771.438000 497001.875000 -3.552000 0
154771.344000 497001.500000 -3.579000 0
154771.266000 497001.125000 -3.556000 0
154771.172000 497000.719000 -3.553000 0
154771.078000 497000.375000 -3.520000 0
154777.766000 497029.938000 -3.414000 0
154777.672000 497029.531000 -3.426000 0
154777.594000 497029.156000 -3.425000 0
154777.516000 497028.844000 -3.388000 0
154777.422000 497028.469000 -3.354000 0
154777.328000 497028.063000 -3.451000 0
154777.234000 497027.719000 -3.420000 0
154777.141000 497027.344000 -3.432000 0
154777.047000 497026.938000 -3.487000 0
154776.984000 497026.625000 -3.403000 0
154776.891000 497026.281000 -3.417000 0
154776.797000 497025.875000 -3.438000 0
154776.703000 497025.500000 -3.410000 0
154776.625000 497025.156000 -3.411000 0
154776.516000 497024.719000 -3.492000 0
154776.422000 497024.344000 -3.482000 0
154776.344000 497024.031000 -3.492000 0
154776.266000 497023.688000 -3.425000 0
154776.172000 497023.281000 -3.421000 0
154776.078000 497022.938000 -3.454000 0
154776.172000 497023.281000 -1.508000 0
154776.000000 497022.563000 -3.396000 0
154775.906000 497022.156000 -3.430000 0
154775.813000 497021.813000 -3.457000 0
154775.719000 497021.438000 -3.420000 0
154775.641000 497021.094000 -3.370000 0
154775.531000 497020.656000 -3.527000 0
154775.453000 497020.313000 -3.549000 0
154775.359000 497019.938000 -3.504000 0
154775.281000 497019.594000 -3.472000 0
154775.188000 497019.219000 -3.559000 0
154775.094000 497018.844000 -3.555000 0
154775.016000 497018.500000 -3.494000 0
154774.938000 497018.156000 -3.482000 0
154774.844000 497017.844000 -3.392000 0
154774.750000 497017.438000 -3.447000 0
154774.656000 497017.063000 -3.500000 0
154774.578000 497016.719000 -3.426000 0
154774.500000 497016.344000 -3.363000 0
154774.406000 497015.969000 -3.427000 0
154774.313000 497015.594000 -3.522000 0
154774.219000 497015.219000 -3.501000 0
154774.125000 497014.813000 -3.543000 0
154774.031000 497014.469000 -3.533000 0
154773.938000 497014.063000 -3.550000 0
154773.859000 497013.688000 -3.514000 0
154773.766000 497013.344000 -3.525000 0
154773.672000 497012.969000 -3.504000 0
154773.594000 497012.594000 -3.502000 0
154773.500000 497012.250000 -3.532000 0
154773.422000 497011.906000 -3.468000 0
154773.313000 497011.469000 -3.506000 0
154773.234000 497011.156000 -3.445000 0
154773.141000 497010.750000 -3.504000 0
154773.047000 497010.406000 -3.443000 0
154772.969000 497010.031000 -3.407000 0
154772.875000 497009.656000 -3.496000 0
154772.781000 497009.250000 -3.512000 0
154772.938000 497009.875000 -0.970000 0
154772.688000 497008.906000 -3.461000 0
154772.609000 497008.531000 -3.498000 0
154772.516000 497008.188000 -3.449000 0
154772.656000 497008.719000 -1.103000 0
154772.578000 497008.375000 -1.942000 0
154772.438000 497007.813000 -3.437000 0
154772.344000 497007.469000 -3.488000 0
154772.266000 497007.125000 -3.445000 0
154772.172000 497006.719000 -3.454000 0
154772.078000 497006.344000 -3.490000 0
154772.000000 497006.031000 -3.469000 0
154771.891000 497005.594000 -3.508000 0
154771.813000 497005.281000 -3.423000 0
154771.719000 497004.875000 -3.483000 0
154771.766000 497005.031000 -2.102000 0
154771.625000 497004.469000 -3.526000 0
154771.531000 497004.094000 -3.529000 0
154771.609000 497004.406000 -1.876000 0
154771.453000 497003.781000 -3.522000 0
154771.359000 497003.375000 -3.519000 0
154771.266000 497002.969000 -3.526000 0
154771.078000 497002.219000 -3.565000 0
154771.000000 497001.875000 -3.437000 0
154770.891000 497001.469000 -3.585000 0
154770.813000 497001.125000 -3.589000 0
154770.719000 497000.750000 -3.537000 0
154770.641000 497000.406000 -3.487000 0
154770.547000 497000.000000 -3.551000 0
154777.391000 497029.688000 -3.465000 0
154777.281000 497029.313000 -3.437000 0
154777.203000 497028.969000 -3.352000 0
154777.141000 497028.656000 -3.285000 0
154777.047000 497028.281000 -3.309000 0
154776.938000 497027.875000 -3.410000 0
154776.859000 497027.500000 -3.439000 0
154776.750000 497027.094000 -3.461000 0
154776.672000 497026.750000 -3.397000 0
154776.594000 497026.406000 -3.345000 0
154776.500000 497026.063000 -3.288000 0
154776.406000 497025.656000 -3.385000 0
154776.328000 497025.313000 -3.431000 0
154776.234000 497024.906000 -3.474000 0
154776.125000 497024.500000 -3.503000 0
154776.047000 497024.156000 -3.498000 0
154775.969000 497023.813000 -3.434000 0
154775.875000 497023.438000 -3.431000 0
154775.781000 497023.063000 -3.420000 0
154775.688000 497022.688000 -3.478000 0
154775.609000 497022.344000 -3.391000 0
154775.516000 497021.969000 -3.384000 0
154775.438000 497021.656000 -3.282000 0
154775.344000 497021.250000 -3.424000 0
154775.250000 497020.844000 -3.540000 0
154775.172000 497020.531000 -3.449000 0
154775.234000 497020.781000 -1.870000 0
154775.078000 497020.156000 -3.517000 0
154775.000000 497019.813000 -3.379000 0
154774.906000 497019.438000 -3.484000 0
154774.813000 497019.094000 -3.503000 0
154774.844000 497019.156000 -2.229000 0
154774.719000 497018.656000 -3.555000 0
154774.641000 497018.344000 -3.453000 0
154774.547000 497018.000000 -3.451000 0
154774.469000 497017.594000 -3.408000 0
154774.563000 497017.969000 -1.462000 0
154774.375000 497017.250000 -3.435000 0
154774.422000 497017.438000 -2.046000 0
154774.297000 497016.906000 -3.470000 0
154774.203000 497016.531000 -3.412000 0
154774.234000 497016.625000 -2.114000 0
154774.094000 497016.094000 -3.515000 0
154774.016000 497015.750000 -3.492000 0
154773.922000 497015.344000 -3.502000 0
154773.828000 497014.969000 -3.496000 0
154773.734000 497014.594000 -3.532000 0
154773.656000 497014.281000 -3.447000 0
154773.563000 497013.875000 -3.559000 0
154773.469000 497013.531000 -3.498000 0
154773.391000 497013.156000 -3.487000 0
154773.297000 497012.813000 -3.448000 0
154773.219000 497012.438000 -3.379000 0
154773.125000 497012.063000 -3.440000 0
154773.016000 497011.656000 -3.490000 0
154772.938000 497011.313000 -3.435000 0
154772.859000 497010.938000 -3.438000 0
154772.766000 497010.563000 -3.454000 0
154772.859000 497010.938000 -1.486000 0
154772.656000 497010.156000 -3.520000 0
154772.734000 497010.406000 -1.935000 0
154772.578000 497009.844000 -3.456000 0
154772.484000 497009.438000 -3.570000 0
154772.406000 497009.094000 -3.450000 0
154772.328000 497008.750000 -3.460000 0
154772.453000 497009.281000 -1.141000 0
154772.234000 497008.375000 -3.493000 0
154772.156000 497008.063000 -3.332000 0
154772.063000 497007.688000 -3.401000 0
154771.969000 497007.281000 -3.476000 0
154771.891000 497006.938000 -3.437000 0
154771.781000 497006.531000 -3.426000 0
154771.703000 497006.156000 -3.488000 0
154771.625000 497005.813000 -3.396000 0
154771.516000 497005.406000 -3.462000 0
154771.609000 497005.781000 -1.618000 0
154771.438000 497005.063000 -3.450000 0
154771.344000 497004.688000 -3.477000 0
154771.250000 497004.281000 -3.467000 0
154771.141000 497003.875000 -3.520000 0
154771.063000 497003.531000 -3.512000 0
154770.969000 497003.156000 -3.494000 0
154770.797000 497002.438000 -3.562000 0
154770.703000 497002.063000 -3.497000 0
154770.609000 497001.688000 -3.478000 0
154770.688000 497001.969000 -1.835000 0
154770.531000 497001.313000 -3.537000 0
154770.594000 497001.594000 -1.809000 0
154770.422000 497000.906000 -3.544000 0
154770.344000 497000.531000 -3.473000 0
154770.250000 497000.156000 -3.513000 0
154776.953000 497029.750000 -3.474000 0
154776.859000 497029.375000 -3.482000 0
154776.781000 497029.063000 -3.370000 0
154776.688000 497028.688000 -3.345000 0
154776.609000 497028.313000 -3.384000 0
154776.516000 497027.938000 -3.373000 0
154776.422000 497027.531000 -3.557000 0
154776.328000 497027.188000 -3.493000 0
154776.250000 497026.844000 -3.386000 0
154776.172000 497026.500000 -3.398000 0
154776.078000 497026.094000 -3.401000 0
154775.984000 497025.719000 -3.338000 0
154775.891000 497025.313000 -3.505000 0
154775.813000 497025.000000 -3.424000 0
154775.703000 497024.563000 -3.512000 0
154775.625000 497024.250000 -3.457000 0
154775.531000 497023.875000 -3.448000 0
154775.469000 497023.594000 -3.216000 0
154775.391000 497023.250000 -3.173000 0
154775.297000 497022.875000 -3.335000 0
154775.188000 497022.438000 -3.444000 0
154775.109000 497022.094000 -3.397000 0
154775.031000 497021.781000 -3.273000 0
154774.938000 497021.406000 -3.371000 0
154774.828000 497020.938000 -3.575000 0
154774.750000 497020.625000 -3.502000 0
154774.656000 497020.250000 -3.478000 0
154774.563000 497019.844000 -3.483000 0
154774.469000 497019.500000 -3.533000 0
154774.391000 497019.156000 -3.536000 0
154774.422000 497019.250000 -2.167000 0
154774.281000 497018.719000 -3.588000 0
154774.203000 497018.375000 -3.556000 0
154774.125000 497018.031000 -3.495000 0
154774.031000 497017.656000 -3.418000 0
154773.938000 497017.281000 -3.463000 0
154774.063000 497017.813000 -1.175000 0
154773.844000 497016.906000 -3.529000 0
154773.766000 497016.563000 -3.469000 0
154773.672000 497016.156000 -3.548000 0
154773.578000 497015.813000 -3.545000 0
154773.500000 497015.438000 -3.473000 0
154773.406000 497015.063000 -3.517000 0
154773.313000 497014.688000 -3.505000 0
154773.234000 497014.313000 -3.499000 0
154773.125000 497013.906000 -3.574000 0
154773.047000 497013.563000 -3.570000 0
154772.953000 497013.188000 -3.518000 0
154772.875000 497012.844000 -3.498000 0
154772.781000 497012.500000 -3.387000 0
154772.688000 497012.125000 -3.484000 0
154772.609000 497011.781000 -3.398000 0
154772.531000 497011.438000 -3.391000 0
154772.438000 497011.063000 -3.405000 0
154772.344000 497010.688000 -3.377000 0
154772.250000 497010.313000 -3.478000 0
154772.172000 497009.938000 -3.520000 0
154772.078000 497009.563000 -3.546000 0
154771.984000 497009.188000 -3.534000 0
154772.109000 497009.719000 -1.202000 0
154771.891000 497008.813000 -3.535000 0
154771.813000 497008.469000 -3.456000 0
154771.719000 497008.125000 -3.411000 0
154771.641000 497007.750000 -3.390000 0
154771.547000 497007.375000 -3.450000 0
154771.453000 497006.969000 -3.509000 0
154771.359000 497006.563000 -3.533000 0
154771.266000 497006.219000 -3.472000 0
154771.172000 497005.813000 -3.509000 0
154771.078000 497005.438000 -3.509000 0
154771.000000 497005.094000 -3.532000 0
154770.906000 497004.750000 -3.562000 0
154770.813000 497004.344000 -3.545000 0
154770.719000 497003.969000 -3.559000 0
154770.641000 497003.594000 -3.570000 0
154770.531000 497003.188000 -3.585000 0
154770.438000 497002.813000 -3.622000 0
154770.359000 497002.469000 -3.550000 0
154770.281000 497002.125000 -3.463000 0
154770.188000 497001.750000 -3.442000 0
154770.094000 497001.375000 -3.512000 0
154770.156000 497001.625000 -1.896000 0
154770.000000 497000.969000 -3.554000 0
154769.906000 497000.594000 -3.565000 0
154770.063000 497001.250000 -1.053000 0
154769.828000 497000.250000 -3.598000 0
154776.578000 497029.781000 -3.482000 0
154776.500000 497029.438000 -3.397000 0
154776.422000 497029.094000 -3.330000 0
154776.344000 497028.750000 -3.309000 0
154776.234000 497028.344000 -3.370000 0
154776.156000 497028.000000 -3.362000 0
154776.047000 497027.594000 -3.478000 0
154775.969000 497027.219000 -3.396000 0
154775.891000 497026.906000 -3.187000 0
154775.797000 497026.531000 -3.316000 0
154775.906000 497027.000000 -1.071000 0
154775.703000 497026.125000 -3.370000 0
154775.609000 497025.781000 -3.337000 0
154775.516000 497025.375000 -3.402000 0
154775.438000 497025.031000 -3.451000 0
154775.344000 497024.656000 -3.478000 0
154775.266000 497024.313000 -3.441000 0
154775.172000 497023.969000 -3.472000 0
154775.094000 497023.594000 -3.353000 0
154775.000000 497023.250000 -3.344000 0
154774.922000 497022.906000 -3.363000 0
154774.828000 497022.500000 -3.406000 0
154774.734000 497022.125000 -3.421000 0
154774.656000 497021.813000 -3.364000 0
154774.563000 497021.438000 -3.324000 0
154774.469000 497021.000000 -3.456000 0
154774.375000 497020.656000 -3.455000 0
154774.297000 497020.344000 -3.314000 0
154774.203000 497019.938000 -3.369000 0
154774.109000 497019.563000 -3.388000 0
154774.016000 497019.156000 -3.491000 0
154773.922000 497018.750000 -3.456000 0
154773.828000 497018.375000 -3.565000 0
154773.750000 497018.031000 -3.576000 0
154773.656000 497017.656000 -3.556000 0
154773.563000 497017.281000 -3.521000 0
154773.484000 497016.938000 -3.501000 0
154773.391000 497016.563000 -3.546000 0
154773.297000 497016.219000 -3.464000 0
154773.219000 497015.813000 -3.495000 0
154773.125000 497015.438000 -3.508000 0
154773.031000 497015.094000 -3.427000 0
154772.938000 497014.719000 -3.473000 0
154772.859000 497014.375000 -3.493000 0
154772.766000 497013.969000 -3.490000 0
154772.672000 497013.594000 -3.535000 0
154772.594000 497013.250000 -3.570000 0
154772.500000 497012.906000 -3.476000 0
154772.406000 497012.531000 -3.509000 0
154772.328000 497012.188000 -3.452000 0
154772.453000 497012.656000 -1.268000 0
154772.250000 497011.844000 -3.450000 0
154772.328000 497012.125000 -1.719000 0
154772.156000 497011.469000 -3.441000 0
154772.063000 497011.094000 -3.412000 0
154771.984000 497010.750000 -3.416000 0
154772.063000 497011.063000 -1.571000 0
154771.891000 497010.344000 -3.451000 0
154771.797000 497009.969000 -3.455000 0
154771.719000 497009.625000 -3.447000 0
154771.625000 497009.250000 -3.512000 0
154771.516000 497008.844000 -3.523000 0
154771.438000 497008.500000 -3.481000 0
154771.344000 497008.125000 -3.467000 0
154771.250000 497007.719000 -3.462000 0
154771.172000 497007.344000 -3.462000 0
154771.078000 497007.031000 -3.415000 0
154771.000000 497006.656000 -3.407000 0
154770.906000 497006.281000 -3.449000 0
154770.813000 497005.906000 -3.473000 0
154770.719000 497005.469000 -3.510000 0
154770.625000 497005.125000 -3.511000 0
154770.547000 497004.750000 -3.516000 0
154770.438000 497004.344000 -3.569000 0
154770.344000 497004.000000 -3.514000 0
154770.266000 497003.656000 -3.527000 0
154770.172000 497003.250000 -3.491000 0
154770.078000 497002.875000 -3.581000 0
154770.000000 497002.531000 -3.539000 0
154770.063000 497002.750000 -1.982000 0
154769.906000 497002.156000 -3.485000 0
154769.813000 497001.781000 -3.481000 0
154769.734000 497001.438000 -3.517000 0
154769.656000 497001.094000 -3.497000 0
154769.563000 497000.688000 -3.480000 0
154769.469000 497000.313000 -3.530000 0
154776.125000 497029.719000 -3.466000 0
154776.031000 497029.313000 -3.527000 0
154775.938000 497028.969000 -3.493000 0
154775.875000 497028.656000 -3.442000 0
154775.781000 497028.281000 -3.353000 0
154775.688000 497027.938000 -3.351000 0
154775.594000 497027.531000 -3.414000 0
154775.531000 497027.219000 -3.267000 0
154775.422000 497026.813000 -3.374000 0
154775.344000 497026.500000 -3.388000 0
154775.266000 497026.156000 -3.316000 0
154775.156000 497025.719000 -3.398000 0
154775.094000 497025.406000 -3.349000 0
154775.000000 497025.031000 -3.437000 0
154774.891000 497024.594000 -3.527000 0
154774.813000 497024.250000 -3.522000 0
154774.938000 497024.781000 -1.121000 0
154774.734000 497023.938000 -3.422000 0
154774.641000 497023.531000 -3.398000 0
154774.703000 497023.813000 -1.709000 0
154774.547000 497023.188000 -3.409000 0
154774.469000 497022.844000 -3.399000 0
154774.359000 497022.438000 -3.481000 0
154774.281000 497022.063000 -3.410000 0
154774.188000 497021.719000 -3.392000 0
154774.094000 497021.313000 -3.474000 0
154774.000000 497020.875000 -3.511000 0
154773.922000 497020.563000 -3.473000 0
154773.828000 497020.219000 -3.450000 0
154773.750000 497019.844000 -3.415000 0
154773.656000 497019.469000 -3.505000 0
154773.688000 497019.625000 -2.108000 0
154773.563000 497019.063000 -3.558000 0
154773.469000 497018.688000 -3.556000 0
154773.375000 497018.344000 -3.505000 0
154773.281000 497017.938000 -3.571000 0
154773.188000 497017.563000 -3.578000 0
154773.109000 497017.219000 -3.489000 0
154773.016000 497016.844000 -3.553000 0
154772.938000 497016.500000 -3.517000 0
154772.828000 497016.094000 -3.567000 0
154772.766000 497015.781000 -3.532000 0
154772.672000 497015.406000 -3.556000 0
154772.578000 497015.031000 -3.485000 0
154772.500000 497014.688000 -3.552000 0
154772.406000 497014.313000 -3.540000 0
154772.313000 497013.938000 -3.523000 0
154772.234000 497013.594000 -3.512000 0
154772.141000 497013.219000 -3.555000 0
154772.047000 497012.844000 -3.548000 0
154771.969000 497012.500000 -3.417000 0
154772.031000 497012.750000 -1.851000 0
154771.875000 497012.094000 -3.535000 0
154771.797000 497011.781000 -3.411000 0
154771.703000 497011.406000 -3.449000 0
154771.609000 497011.031000 -3.495000 0
154771.516000 497010.656000 -3.477000 0
154771.609000 497010.969000 -1.592000 0
154771.422000 497010.250000 -3.492000 0
154771.328000 497009.844000 -3.552000 0
154771.250000 497009.500000 -3.491000 0
154771.156000 497009.125000 -3.484000 0
154771.234000 497009.469000 -1.680000 0
154771.063000 497008.750000 -3.541000 0
154771.203000 497009.313000 -1.210000 0
154770.984000 497008.406000 -3.562000 0
154770.891000 497008.063000 -3.432000 0
154770.797000 497007.656000 -3.506000 0
154770.703000 497007.281000 -3.534000 0
154770.625000 497006.969000 -3.385000 0
154770.531000 497006.563000 -3.422000 0
154770.438000 497006.156000 -3.499000 0
154770.344000 497005.781000 -3.523000 0
154770.406000 497006.031000 -1.896000 0
154770.250000 497005.406000 -3.509000 0
154770.172000 497005.063000 -3.515000 0
154770.078000 497004.688000 -3.516000 0
154769.984000 497004.313000 -3.522000 0
154769.906000 497003.938000 -3.543000 0
154769.813000 497003.594000 -3.549000 0
154769.719000 497003.188000 -3.625000 0
154769.641000 497002.844000 -3.540000 0
154769.547000 497002.469000 -3.607000 0
154769.453000 497002.125000 -3.559000 0
154769.375000 497001.750000 -3.525000 0
154769.297000 497001.406000 -3.500000 0
154769.203000 497001.031000 -3.536000 0
154769.094000 497000.625000 -3.496000 0
154769.016000 497000.281000 -3.540000 0
154775.844000 497029.781000 -3.596000 0
154775.766000 497029.438000 -3.542000 0
154775.672000 497029.031000 -3.561000 0
154775.594000 497028.719000 -3.494000 0
154775.516000 497028.406000 -3.408000 0
154775.422000 497028.031000 -3.370000 0
154775.344000 497027.719000 -3.330000 0
154775.266000 497027.344000 -3.326000 0
154775.156000 497026.938000 -3.405000 0
154775.078000 497026.625000 -3.364000 0
154774.984000 497026.219000 -3.429000 0
154774.906000 497025.875000 -3.368000 0
154774.813000 497025.531000 -3.303000 0
154774.719000 497025.125000 -3.404000 0
154774.625000 497024.750000 -3.477000 0
154774.547000 497024.375000 -3.471000 0
154774.453000 497024.031000 -3.452000 0
154774.359000 497023.656000 -3.397000 0
154774.281000 497023.281000 -3.371000 0
154774.188000 497022.906000 -3.379000 0
154774.094000 497022.500000 -3.450000 0
154774.000000 497022.125000 -3.483000 0
154773.922000 497021.813000 -3.448000 0
154773.828000 497021.469000 -3.463000 0
154773.734000 497021.063000 -3.444000 0
154773.641000 497020.688000 -3.467000 0
154773.563000 497020.313000 -3.479000 0
154773.469000 497019.938000 -3.501000 0
154773.375000 497019.563000 -3.498000 0
154773.281000 497019.188000 -3.515000 0
154773.203000 497018.813000 -3.487000 0
154773.094000 497018.438000 -3.510000 0
154773.016000 497018.094000 -3.565000 0
154772.922000 497017.688000 -3.549000 0
154772.844000 497017.344000 -3.553000 0
154772.750000 497017.000000 -3.502000 0
154772.672000 497016.656000 -3.481000 0
154772.578000 497016.281000 -3.507000 0
154772.484000 497015.875000 -3.550000 0
154772.563000 497016.156000 -1.925000 0
154772.406000 497015.531000 -3.590000 0
154772.313000 497015.156000 -3.593000 0
154772.219000 497014.781000 -3.568000 0
154772.141000 497014.469000 -3.505000 0
154772.203000 497014.719000 -1.871000 0
154772.047000 497014.063000 -3.530000 0
154771.953000 497013.688000 -3.514000 0
154771.875000 497013.344000 -3.576000 0
154771.797000 497013.000000 -3.487000 0
154771.703000 497012.625000 -3.408000 0
154771.813000 497013.063000 -1.342000 0
154771.609000 497012.250000 -3.480000 0
154771.516000 497011.844000 -3.485000 0
154771.422000 497011.469000 -3.491000 0
154771.328000 497011.063000 -3.529000 0
154771.250000 497010.750000 -3.489000 0
154771.141000 497010.344000 -3.548000 0
154771.063000 497010.000000 -3.532000 0
154771.125000 497010.250000 -1.948000 0
154770.969000 497009.625000 -3.515000 0
154771.016000 497009.781000 -2.124000 0
154770.891000 497009.281000 -3.443000 0
154770.797000 497008.875000 -3.518000 0
154770.828000 497009.000000 -2.262000 0
154770.703000 497008.500000 -3.568000 0
154770.609000 497008.125000 -3.527000 0
154770.516000 497007.719000 -3.525000 0
154770.438000 497007.375000 -3.518000 0
154770.344000 497007.000000 -3.528000 0
154770.250000 497006.656000 -3.462000 0
154770.172000 497006.281000 -3.506000 0
154770.078000 497005.906000 -3.516000 0
154770.156000 497006.219000 -1.788000 0
154769.984000 497005.531000 -3.523000 0
154769.906000 497005.188000 -3.515000 0
154769.813000 497004.844000 -3.529000 0
154769.719000 497004.438000 -3.502000 0
154769.641000 497004.063000 -3.524000 0
154769.656000 497004.156000 -2.517000 0
154769.547000 497003.719000 -3.590000 0
154769.438000 497003.281000 -3.676000 0
154769.359000 497002.969000 -3.587000 0
154769.281000 497002.594000 -3.545000 0
154769.188000 497002.219000 -3.583000 0
154769.094000 497001.844000 -3.556000 0
154769.016000 497001.500000 -3.548000 0
154768.922000 497001.125000 -3.547000 0
154768.828000 497000.750000 -3.512000 0
154768.734000 497000.344000 -3.534000 0
154775.438000 497029.813000 -3.524000 0
154775.344000 497029.406000 -3.524000 0
154775.359000 497029.500000 -2.324000 0
154775.250000 497029.031000 -3.568000 0
154775.172000 497028.719000 -3.553000 0
154775.094000 497028.375000 -3.462000 0
154775.000000 497028.000000 -3.444000 0
154774.906000 497027.625000 -3.487000 0
154774.828000 497027.281000 -3.438000 0
154774.734000 497026.875000 -3.442000 0
154774.656000 497026.594000 -3.334000 0
154774.563000 497026.219000 -3.381000 0
154774.469000 497025.813000 -3.406000 0
154774.375000 497025.438000 -3.420000 0
154774.297000 497025.094000 -3.364000 0
154774.203000 497024.656000 -3.394000 0
154774.109000 497024.281000 -3.492000 0
154774.031000 497023.969000 -3.448000 0
154773.938000 497023.594000 -3.454000 0
154773.844000 497023.219000 -3.400000 0
154773.766000 497022.844000 -3.425000 0
154773.672000 497022.500000 -3.477000 0
154773.578000 497022.094000 -3.470000 0
154773.500000 497021.781000 -3.389000 0
154773.391000 497021.313000 -3.553000 0
154773.297000 497020.969000 -3.509000 0
154773.219000 497020.594000 -3.525000 0
154773.125000 497020.250000 -3.542000 0
154773.031000 497019.844000 -3.538000 0
154772.953000 497019.531000 -3.476000 0
154772.859000 497019.156000 -3.519000 0
154772.781000 497018.844000 -3.414000 0
154772.703000 497018.500000 -3.356000 0
154772.609000 497018.094000 -3.457000 0
154772.516000 497017.719000 -3.477000 0
154772.422000 497017.344000 -3.533000 0
154772.328000 497016.938000 -3.585000 0
154772.250000 497016.625000 -3.490000 0
154772.156000 497016.250000 -3.442000 0
154772.281000 497016.719000 -1.212000 0
154772.063000 497015.875000 -3.478000 0
154771.984000 497015.500000 -3.502000 0
154771.891000 497015.125000 -3.535000 0
154771.797000 497014.719000 -3.581000 0
154771.703000 497014.375000 -3.586000 0
154771.625000 497014.000000 -3.508000 0
154771.531000 497013.656000 -3.446000 0
154771.438000 497013.250000 -3.546000 0
154771.359000 497012.906000 -3.481000 0
154771.453000 497013.281000 -1.550000 0
154771.266000 497012.531000 -3.487000 0
154771.188000 497012.219000 -3.417000 0
154771.094000 497011.813000 -3.482000 0
154771.000000 497011.438000 -3.439000 0
154770.906000 497011.063000 -3.512000 0
154770.813000 497010.656000 -3.567000 0
154770.719000 497010.281000 -3.530000 0
154770.625000 497009.906000 -3.555000 0
154770.547000 497009.563000 -3.520000 0
154770.453000 497009.156000 -3.542000 0
154770.359000 497008.781000 -3.550000 0
154770.281000 497008.438000 -3.555000 0
154770.188000 497008.063000 -3.544000 0
154770.094000 497007.688000 -3.549000 0
154770.125000 497007.781000 -2.441000 0
154770.016000 497007.375000 -3.545000 0
154769.922000 497007.000000 -3.526000 0
154769.828000 497006.594000 -3.551000 0
154769.750000 497006.250000 -3.509000 0
154769.656000 497005.906000 -3.561000 0
154769.578000 497005.531000 -3.483000 0
154769.484000 497005.156000 -3.538000 0
154769.391000 497004.781000 -3.538000 0
154769.297000 497004.406000 -3.481000 0
154769.219000 497004.031000 -3.521000 0
154769.125000 497003.688000 -3.508000 0
154769.188000 497003.938000 -1.917000 0
154769.031000 497003.281000 -3.565000 0
154768.938000 497002.906000 -3.551000 0
154769.156000 497003.813000 -0.298000 0
154768.984000 497003.125000 -2.087000 0
154768.844000 497002.531000 -3.556000 0
154768.750000 497002.125000 -3.590000 0
154768.656000 497001.750000 -3.575000 0
154768.578000 497001.406000 -3.550000 0
154768.484000 497001.063000 -3.561000 0
154768.406000 497000.688000 -3.544000 0
154768.313000 497000.313000 -3.481000 0
154775.094000 497029.844000 -3.500000 0
154775.000000 497029.469000 -3.418000 0
154774.906000 497029.063000 -3.489000 0
154774.828000 497028.719000 -3.509000 0
154774.734000 497028.344000 -3.573000 0
154774.641000 497027.969000 -3.475000 0
154774.563000 497027.656000 -3.441000 0
154774.469000 497027.250000 -3.489000 0
154774.359000 497026.844000 -3.486000 0
154774.281000 497026.500000 -3.442000 0
154774.203000 497026.188000 -3.380000 0
154774.109000 497025.781000 -3.420000 0
154774.031000 497025.469000 -3.376000 0
154773.953000 497025.125000 -3.323000 0
154773.859000 497024.719000 -3.342000 0
154773.750000 497024.313000 -3.454000 0
154773.688000 497024.000000 -3.373000 0
154773.578000 497023.563000 -3.437000 0
154773.484000 497023.188000 -3.428000 0
154773.406000 497022.844000 -3.447000 0
154773.313000 497022.469000 -3.433000 0
154773.219000 497022.094000 -3.425000 0
154773.141000 497021.750000 -3.430000 0
154773.047000 497021.375000 -3.484000 0
154772.953000 497020.969000 -3.555000 0
154772.875000 497020.656000 -3.480000 0
154772.797000 497020.313000 -3.436000 0
154772.688000 497019.938000 -3.479000 0
154772.609000 497019.563000 -3.466000 0
154772.516000 497019.219000 -3.538000 0
154772.438000 497018.875000 -3.362000 0
154772.359000 497018.531000 -3.304000 0
154772.266000 497018.156000 -3.412000 0
154772.156000 497017.719000 -3.488000 0
154772.063000 497017.313000 -3.561000 0
154771.984000 497017.000000 -3.562000 0
154771.906000 497016.656000 -3.460000 0
154771.813000 497016.250000 -3.455000 0
154771.719000 497015.875000 -3.458000 0
154771.625000 497015.500000 -3.508000 0
154771.547000 497015.125000 -3.397000 0
154771.438000 497014.750000 -3.506000 0
154771.359000 497014.406000 -3.524000 0
154771.266000 497014.031000 -3.561000 0
154771.172000 497013.625000 -3.573000 0
154771.094000 497013.250000 -3.600000 0
154771.000000 497012.906000 -3.547000 0
154770.906000 497012.531000 -3.478000 0
154770.828000 497012.188000 -3.491000 0
154770.734000 497011.813000 -3.461000 0
154770.641000 497011.406000 -3.543000 0
154770.547000 497011.031000 -3.545000 0
154770.469000 497010.688000 -3.522000 0
154770.359000 497010.281000 -3.542000 0
154770.281000 497009.938000 -3.562000 0
154770.203000 497009.594000 -3.551000 0
154770.109000 497009.250000 -3.492000 0
154770.016000 497008.844000 -3.499000 0
154769.938000 497008.531000 -3.432000 0
154769.844000 497008.156000 -3.515000 0
154769.766000 497007.750000 -3.517000 0
154769.656000 497007.375000 -3.578000 0
154769.578000 497007.031000 -3.555000 0
154769.484000 497006.625000 -3.539000 0
154769.391000 497006.281000 -3.519000 0
154769.313000 497005.906000 -3.575000 0
154769.344000 497006.031000 -2.281000 0
154769.219000 497005.500000 -3.609000 0
154769.125000 497005.156000 -3.554000 0
154769.047000 497004.844000 -3.435000 0
154769.109000 497005.063000 -1.811000 0
154768.953000 497004.438000 -3.444000 0
154768.859000 497004.031000 -3.524000 0
154768.781000 497003.719000 -3.404000 0
154768.828000 497003.938000 -1.877000 0
154768.672000 497003.250000 -3.607000 0
154768.594000 497002.938000 -3.491000 0
154768.516000 497002.625000 -3.441000 0
154768.422000 497002.219000 -3.492000 0
154768.313000 497001.781000 -3.544000 0
154768.234000 497001.438000 -3.558000 0
154768.141000 497001.063000 -3.530000 0
154768.047000 497000.656000 -3.538000 0
154767.953000 497000.313000 -3.494000 0
154774.563000 497029.813000 -3.412000 0
154774.453000 497029.406000 -3.455000 0
154774.375000 497029.063000 -3.416000 0
154774.281000 497028.719000 -3.367000 0
154774.172000 497028.250000 -3.573000 0
154774.078000 497027.875000 -3.591000 0
154774.000000 497027.563000 -3.532000 0
154773.922000 497027.219000 -3.472000 0
154773.828000 497026.844000 -3.436000 0
154773.750000 497026.469000 -3.439000 0
154773.656000 497026.125000 -3.449000 0
154773.563000 497025.750000 -3.423000 0
154773.484000 497025.375000 -3.388000 0
154773.391000 497025.000000 -3.434000 0
154773.297000 497024.656000 -3.424000 0
154773.203000 497024.250000 -3.451000 0
154773.359000 497024.875000 -0.926000 0
154773.141000 497023.938000 -3.398000 0
154773.031000 497023.531000 -3.454000 0
154772.938000 497023.156000 -3.497000 0
154772.859000 497022.813000 -3.521000 0
154772.766000 497022.438000 -3.476000 0
154772.688000 497022.094000 -3.438000 0
154772.594000 497021.750000 -3.426000 0
154772.516000 497021.375000 -3.459000 0
154772.422000 497021.000000 -3.461000 0
154772.344000 497020.656000 -3.397000 0
154772.250000 497020.313000 -3.405000 0
154772.156000 497019.906000 -3.401000 0
154772.172000 497019.938000 -2.316000 0
154772.063000 497019.500000 -3.524000 0
154771.969000 497019.156000 -3.559000 0
154771.891000 497018.781000 -3.529000 0
154771.781000 497018.375000 -3.557000 0
154771.703000 497018.063000 -3.510000 0
154771.609000 497017.656000 -3.539000 0
154771.516000 497017.250000 -3.547000 0
154771.422000 497016.875000 -3.576000 0
154771.344000 497016.531000 -3.542000 0
154771.531000 497017.313000 -0.558000 0
154771.250000 497016.188000 -3.525000 0
154771.172000 497015.844000 -3.482000 0
154771.281000 497016.281000 -1.406000 0
154771.078000 497015.469000 -3.538000 0
154770.984000 497015.063000 -3.509000 0
154770.906000 497014.719000 -3.474000 0
154770.813000 497014.344000 -3.503000 0
154770.719000 497013.938000 -3.592000 0
154770.625000 497013.563000 -3.564000 0
154770.531000 497013.188000 -3.626000 0
154770.453000 497012.844000 -3.549000 0
154770.453000 497012.844000 -2.565000 0
154770.359000 497012.469000 -3.548000 0
154770.266000 497012.125000 -3.525000 0
