152614.500000 497645.188000 -3.550000 0
152614.422000 497644.875000 -3.572000 0
152614.344000 497644.563000 -3.584000 0
152614.250000 497644.219000 -3.581000 0
152614.063000 497643.438000 -0.272000 0
152614.172000 497643.875000 -3.551000 0
152614.094000 497643.563000 -3.511000 0
152614.016000 497643.219000 -3.443000 0
152613.875000 497642.656000 -1.644000 0
152613.938000 497642.906000 -3.480000 0
152613.859000 497642.594000 -3.536000 0
152613.766000 497642.250000 -3.547000 0
152613.625000 497641.656000 -1.778000 0
152613.672000 497641.875000 -3.298000 0
152613.609000 497641.594000 -3.559000 0
152613.531000 497641.250000 -3.538000 0
152613.453000 497640.938000 -3.624000 0
152613.375000 497640.625000 -3.553000 0
152613.297000 497640.313000 -3.590000 0
152613.125000 497639.625000 -3.459000 0
152613.047000 497639.313000 -3.297000 0
152612.953000 497638.969000 -3.521000 0
152612.813000 497638.344000 -1.257000 0
152612.875000 497638.625000 -3.488000 0
152612.750000 497638.125000 -1.785000 1
152612.813000 497638.344000 -3.521000 0
152612.719000 497638.000000 -3.611000 0
152612.641000 497637.688000 -3.535000 0
152612.563000 497637.375000 -3.561000 0
152612.359000 497636.500000 0.631000 0
152612.484000 497637.063000 -3.605000 0
152612.266000 497636.188000 0.709000 0
152612.406000 497636.719000 -3.529000 0
152612.328000 497636.406000 -3.562000 0
152612.141000 497635.625000 0.251000 1
152612.250000 497636.125000 -3.545000 0
152612.047000 497635.281000 0.238000 1
152612.156000 497635.750000 -3.627000 0
152611.969000 497634.969000 0.288000 1
152612.094000 497635.469000 -3.607000 0
152611.906000 497634.656000 0.309000 1
152612.016000 497635.156000 -3.590000 0
152611.922000 497634.781000 -3.574000 0
152611.844000 497634.500000 -3.612000 0
152623.844000 497684.500000 -1.819000 0
152623.828000 497684.375000 -3.357000 0
152623.641000 497683.656000 -1.031000 0
152623.750000 497684.063000 -3.477000 0
152623.656000 497683.750000 -3.462000 0
152623.578000 497683.438000 -3.531000 0
152623.500000 497683.094000 -3.556000 0
152623.438000 497682.813000 -3.610000 0
152623.344000 497682.469000 -3.549000 0
152623.250000 497682.125000 -3.545000 0
152623.188000 497681.813000 -3.591000 0
152623.094000 497681.469000 -3.591000 0
152623.016000 497681.125000 -3.572000 0
152622.703000 497679.844000 2.220000 1
152622.781000 497680.188000 0.120000 1
152622.938000 497680.813000 -3.672000 0
152622.641000 497679.594000 2.026000 1
152622.719000 497679.938000 -0.168000 1
152622.859000 497680.500000 -3.521000 0
152622.563000 497679.250000 1.933000 1
152622.766000 497680.156000 -3.617000 0
152622.484000 497678.969000 1.758000 1
152622.438000 497678.813000 0.727000 1
152622.391000 497678.594000 -0.087000 1
152622.531000 497679.188000 -3.637000 0
152622.313000 497678.250000 0.017000 1
152622.375000 497678.563000 -3.611000 0
152622.156000 497677.656000 0.004000 1
152622.219000 497677.875000 -1.420000 0
152622.297000 497678.250000 -3.631000 0
152622.031000 497677.125000 1.044000 0
152622.203000 497677.844000 -3.522000 0
152622.141000 497677.563000 -3.548000 0
152621.828000 497676.313000 2.228000 1
152621.906000 497676.625000 0.296000 0
152622.063000 497677.250000 -3.590000 0
152621.734000 497675.938000 2.413000 1
152621.656000 497675.625000 2.427000 1
152621.734000 497675.906000 0.651000 0
152621.594000 497675.375000 2.097000 1
152621.719000 497675.875000 -1.014000 1
152621.813000 497676.281000 -3.585000 0
152621.594000 497675.375000 -0.192000 1
152621.453000 497674.813000 1.448000 1
152621.563000 497675.219000 -1.168000 1
152621.656000 497675.625000 -3.617000 0
152621.391000 497674.563000 1.126000 0
152621.469000 497674.875000 -0.944000 1
152621.578000 497675.313000 -3.561000 0
152621.359000 497674.406000 -0.178000 0
152621.484000 497674.938000 -3.595000 0
152621.406000 497674.594000 -3.620000 0
152621.328000 497674.281000 -3.554000 0
152621.234000 497673.938000 -3.488000 0
152621.141000 497673.594000 -3.564000 0
152621.063000 497673.250000 -3.354000 0
152620.984000 497672.969000 -3.430000 0
152620.828000 497672.281000 -1.329000 0
152620.906000 497672.594000 -3.171000 0
152620.766000 497672.031000 -1.656000 0
152620.828000 497672.313000 -3.446000 0
152620.672000 497671.688000 -1.637000 0
152620.750000 497672.000000 -3.574000 0
152620.672000 497671.625000 -3.420000 0
152620.578000 497671.313000 -3.372000 0
152620.500000 497670.969000 -3.366000 0
152620.344000 497670.313000 -1.306000 0
152620.422000 497670.625000 -3.374000 0
152620.344000 497670.313000 -3.427000 0
152620.266000 497670.000000 -3.423000 0
152620.063000 497669.188000 -0.275000 0
152620.172000 497669.656000 -3.435000 0
152620.094000 497669.344000 -3.512000 0
152619.938000 497668.656000 -1.037000 0
152620.016000 497669.031000 -3.523000 0
152619.938000 497668.719000 -3.531000 0
152619.859000 497668.375000 -3.512000 0
152619.734000 497667.844000 -1.997000 0
152619.781000 497668.063000 -3.331000 0
152619.609000 497667.406000 -3.439000 0
152619.547000 497667.125000 -3.548000 0
152619.469000 497666.781000 -3.410000 0
152619.281000 497666.094000 -3.268000 0
152619.219000 497665.813000 -3.435000 0
152619.141000 497665.469000 -3.498000 0
152619.047000 497665.125000 -3.344000 0
152618.984000 497664.813000 -3.470000 0
152618.891000 497664.469000 -3.423000 0
152618.813000 497664.125000 -3.428000 0
152618.563000 497663.125000 1.098000 0
152618.719000 497663.813000 -3.442000 0
152618.500000 497662.844000 0.774000 1
152618.641000 497663.469000 -3.414000 0
152618.375000 497662.344000 1.792000 1
152618.563000 497663.156000 -3.601000 0
152618.313000 497662.156000 1.191000 1
152618.484000 497662.875000 -3.603000 0
152618.234000 497661.844000 1.304000 1
152618.406000 497662.563000 -3.563000 0
152618.203000 497661.656000 -0.006000 1
152618.328000 497662.188000 -3.600000 0
152618.047000 497661.063000 1.844000 1
152618.109000 497661.344000 -0.021000 1
152618.250000 497661.875000 -3.583000 0
152617.969000 497660.750000 1.875000 1
152618.172000 497661.563000 -3.557000 0
152618.078000 497661.219000 -3.515000 0
152617.828000 497660.156000 1.286000 1
152617.797000 497660.000000 0.143000 0
152617.922000 497660.531000 -3.468000 0
152617.719000 497659.719000 -0.007000 0
152617.844000 497660.219000 -3.563000 0
152617.750000 497659.875000 -3.555000 0
152617.688000 497659.594000 -3.554000 0
152617.453000 497658.688000 0.366000 1
152617.594000 497659.250000 -3.606000 0
152617.391000 497658.375000 0.168000 1
152617.516000 497658.938000 -3.640000 0
152617.313000 497658.094000 -0.046000 1
152617.438000 497658.594000 -3.566000 0
152617.172000 497657.531000 1.879000 0
152617.359000 497658.313000 -3.646000 0
152617.281000 497657.969000 -3.641000 0
152617.078000 497657.156000 -0.278000 1
152617.203000 497657.656000 -3.640000 0
152617.047000 497657.031000 -1.487000 0
152616.906000 497656.438000 0.522000 1
152616.813000 497656.031000 0.845000 1
152616.953000 497656.656000 -3.580000 0
152616.719000 497655.656000 1.406000 0
152616.813000 497656.063000 -1.347000 0
152616.875000 497656.375000 -3.463000 0
152616.656000 497655.438000 0.583000 0
152616.797000 497656.031000 -3.574000 0
152616.625000 497655.313000 -0.876000 1
152616.719000 497655.688000 -3.604000 0
152616.641000 497655.375000 -3.591000 0
152616.438000 497654.563000 -0.092000 0
152616.563000 497655.063000 -3.447000 0
152616.391000 497654.344000 -0.971000 1
152616.469000 497654.688000 -3.412000 0
152616.156000 497653.406000 3.286000 1
152616.391000 497654.375000 -3.427000 0
152616.094000 497653.125000 3.069000 1
152616.313000 497654.063000 -3.494000 0
152616.016000 497652.813000 2.844000 1
152616.219000 497653.656000 -3.245000 0
152615.938000 497652.500000 2.649000 1
152616.141000 497653.375000 -3.556000 0
152615.828000 497652.094000 3.435000 1
152615.922000 497652.500000 0.609000 0
152616.063000 497653.094000 -3.569000 0
152615.797000 497651.969000 1.947000 1
152615.859000 497652.250000 0.104000 0
152615.984000 497652.750000 -3.596000 0
152615.641000 497651.281000 4.517000 1
152615.734000 497651.719000 1.397000 1
152615.906000 497652.438000 -3.533000 0
152615.578000 497651.063000 4.122000 1
152615.641000 497651.344000 2.062000 1
152615.641000 497651.344000 -0.443000 1
152615.750000 497651.750000 -3.458000 0
152615.516000 497650.813000 1.022000 1
152615.422000 497650.438000 1.468000 0
152615.594000 497651.125000 -3.562000 0
152615.500000 497650.781000 -3.412000 0
152615.250000 497649.719000 1.548000 1
152615.406000 497650.438000 -3.463000 0
152615.344000 497650.125000 -3.469000 0
152615.266000 497649.813000 -3.588000 0
152615.188000 497649.500000 -3.608000 0
152615.094000 497649.156000 -3.602000 0
152615.031000 497648.875000 -3.616000 0
152614.938000 497648.531000 -3.567000 0
152614.781000 497647.875000 -1.162000 0
152614.859000 497648.188000 -3.521000 0
152614.719000 497647.656000 -1.608000 0
152614.781000 497647.906000 -3.499000 0
152614.703000 497647.563000 -3.434000 0
152614.625000 497647.219000 -3.493000 0
152614.547000 497646.938000 -3.550000 0
152614.469000 497646.594000 -3.514000 0
152614.391000 497646.281000 -3.560000 0
152614.297000 497645.938000 -3.432000 0
152614.219000 497645.625000 -3.555000 0
152614.141000 497645.281000 -3.465000 0
152614.063000 497644.969000 -3.542000 0
152613.984000 497644.656000 -3.551000 0
152613.891000 497644.313000 -3.492000 0
152613.813000 497643.969000 -3.488000 0
152613.672000 497643.375000 -1.538000 0
152613.734000 497643.656000 -3.494000 0
152613.641000 497643.281000 -3.395000 0
152613.563000 497642.969000 -3.443000 0
152613.500000 497642.688000 -3.586000 0
152613.406000 497642.344000 -3.436000 0
152613.328000 497642.000000 -3.476000 0
152613.250000 497641.688000 -3.450000 0
152613.172000 497641.406000 -3.575000 0
152613.094000 497641.031000 -3.526000 0
152613.000000 497640.719000 -3.552000 0
152612.922000 497640.375000 -3.474000 0
152612.844000 497640.063000 -3.531000 0
152612.766000 497639.719000 -3.461000 0
152612.625000 497639.156000 -1.469000 0
152612.688000 497639.406000 -3.485000 0
152612.594000 497639.063000 -3.444000 0
152612.516000 497638.750000 -3.549000 0
152612.391000 497638.188000 -1.336000 1
152612.453000 497638.469000 -3.581000 0
152612.328000 497637.969000 -2.097000 1
152612.375000 497638.156000 -3.584000 0
152612.297000 497637.813000 -3.615000 0
152612.172000 497637.313000 -2.062000 0
152612.219000 497637.500000 -3.603000 0
152612.141000 497637.188000 -3.584000 0
152612.063000 497636.875000 -3.556000 0
152611.828000 497635.938000 0.987000 1
152611.969000 497636.531000 -3.505000 0
152611.781000 497635.750000 0.141000 1
152611.891000 497636.219000 -3.558000 0
152611.688000 497635.375000 0.340000 1
152611.813000 497635.875000 -3.547000 0
152611.609000 497635.063000 0.322000 1
152611.734000 497635.531000 -3.558000 0
152611.656000 497635.250000 -3.611000 0
152611.578000 497634.938000 -3.588000 0
152611.484000 497634.594000 -3.522000 0
152623.328000 497684.219000 -3.468000 0
152623.266000 497683.938000 -3.597000 0
152623.172000 497683.594000 -3.486000 0
152623.094000 497683.250000 -3.572000 0
152623.000000 497682.906000 -3.461000 0
152622.922000 497682.563000 -3.515000 0
152622.844000 497682.250000 -3.514000 0
152622.766000 497681.906000 -3.452000 0
152622.625000 497681.375000 -2.017000 0
152622.688000 497681.625000 -3.541000 0
152622.594000 497681.281000 -3.570000 0
152622.297000 497680.000000 2.327000 1
152622.516000 497680.969000 -3.541000 0
152622.219000 497679.719000 2.119000 1
152622.453000 497680.656000 -3.605000 0
152622.359000 497680.344000 -3.628000 0
152622.281000 497680.000000 -3.634000 0
152621.969000 497678.688000 2.511000 0
152622.047000 497679.031000 0.376000 1
152622.203000 497679.688000 -3.574000 0
152621.938000 497678.531000 1.498000 1
152622.016000 497678.875000 -0.496000 1
152622.125000 497679.375000 -3.583000 0
152621.875000 497678.344000 0.666000 1
152621.953000 497678.656000 -1.269000 0
152622.047000 497679.031000 -3.607000 0
152621.797000 497678.031000 0.592000 1
152621.969000 497678.719000 -3.623000 0
152621.734000 497677.719000 0.568000 1
152621.891000 497678.406000 -3.622000 0
152621.609000 497677.281000 1.161000 1
152621.797000 497678.063000 -3.629000 0
152621.719000 497677.719000 -3.526000 0
152621.422000 497676.500000 2.134000 1
152621.641000 497677.406000 -3.635000 0
152621.375000 497676.281000 1.315000 1
152621.563000 497677.063000 -3.537000 0
152621.234000 497675.719000 2.814000 0
152621.359000 497676.281000 -0.681000 0
152621.469000 497676.719000 -3.539000 0
152621.328000 497676.094000 -1.598000 1
152621.313000 497676.063000 -3.527000 0
152621.141000 497675.375000 -1.338000 1
152621.219000 497675.719000 -3.525000 0
152621.063000 497675.063000 -1.365000 1
152621.141000 497675.375000 -3.483000 0
152620.969000 497674.688000 -1.204000 1
152621.063000 497675.063000 -3.516000 0
152620.906000 497674.438000 -1.531000 1
152620.984000 497674.750000 -3.626000 0
152620.828000 497674.125000 -1.579000 0
152620.906000 497674.438000 -3.612000 0
152620.828000 497674.094000 -3.597000 0
152620.734000 497673.750000 -3.563000 0
152620.656000 497673.438000 -3.472000 0
152620.578000 497673.094000 -3.361000 0
152620.484000 497672.750000 -3.415000 0
152620.406000 497672.438000 -3.526000 0
152620.234000 497671.750000 -1.114000 0
152620.328000 497672.125000 -3.602000 0
152620.250000 497671.781000 -3.568000 0
152620.094000 497671.156000 -1.616000 0
152620.172000 497671.438000 -3.495000 0
152620.094000 497671.125000 -3.468000 0
152620.000000 497670.750000 -3.276000 0
152619.844000 497670.125000 -1.233000 0
152619.922000 497670.469000 -3.384000 0
152619.766000 497669.844000 -1.305000 0
152619.844000 497670.156000 -3.383000 0
152619.766000 497669.844000 -3.437000 0
152619.609000 497669.188000 -1.585000 0
152619.672000 497669.469000 -3.452000 0
152619.609000 497669.188000 -3.419000 0
152619.453000 497668.531000 -1.181000 0
152619.531000 497668.844000 -3.222000 0
152619.438000 497668.531000 -3.427000 0
152619.375000 497668.219000 -3.489000 0
152619.234000 497667.656000 -1.791000 0
152619.281000 497667.875000 -3.380000 0
152619.203000 497667.563000 -3.501000 0
152619.125000 497667.219000 -3.493000 0
152619.047000 497666.906000 -3.372000 0
152618.969000 497666.594000 -3.429000 0
152618.875000 497666.219000 -3.412000 0
152618.797000 497665.938000 -3.478000 0
152618.719000 497665.594000 -3.519000 0
152618.625000 497665.219000 -3.406000 0
152618.547000 497664.938000 -3.463000 0
152618.469000 497664.625000 -3.483000 0
152618.391000 497664.281000 -3.429000 0
152618.313000 497663.969000 -3.477000 0
152618.109000 497663.094000 0.158000 0
152618.234000 497663.625000 -3.474000 0
152618.016000 497662.719000 0.426000 1
152617.922000 497662.375000 0.547000 1
152618.063000 497663.000000 -3.600000 0
152617.859000 497662.094000 0.359000 1
152617.984000 497662.656000 -3.544000 0
152617.703000 497661.500000 2.048000 1
152617.766000 497661.750000 0.374000 1
152617.906000 497662.313000 -3.594000 0
152617.625000 497661.188000 1.878000 1
152617.672000 497661.375000 0.671000 1
152617.828000 497662.000000 -3.609000 0
152617.547000 497660.875000 1.835000 1
152617.734000 497661.656000 -3.390000 0
152617.516000 497660.719000 0.811000 1
152617.672000 497661.344000 -3.488000 0
152617.438000 497660.375000 0.683000 1
152617.547000 497660.875000 -2.752000 0
152617.578000 497661.000000 -3.570000 0
152617.375000 497660.156000 0.283000 1
152617.422000 497660.406000 -3.593000 0
152617.344000 497660.063000 -3.563000 0
152617.266000 497659.750000 -3.569000 0
152617.047000 497658.844000 0.570000 1
152617.141000 497659.219000 -1.972000 0
152617.188000 497659.438000 -3.603000 0
152617.109000 497659.094000 -3.583000 0
152616.859000 497658.094000 1.092000 1
152616.906000 497658.250000 0.004000 1
152617.031000 497658.781000 -3.575000 0
152616.797000 497657.781000 1.120000 1
152616.953000 497658.469000 -3.577000 0
152616.719000 497657.531000 0.762000 1
152616.875000 497658.156000 -3.619000 0
152616.641000 497657.156000 0.758000 1
152616.781000 497657.813000 -3.667000 0
152616.563000 497656.906000 0.472000 1
152616.703000 497657.469000 -3.597000 0
152616.500000 497656.625000 0.172000 1
152616.625000 497657.156000 -3.588000 0
152616.406000 497656.281000 0.240000 1
152616.547000 497656.844000 -3.619000 0
152616.328000 497655.938000 0.327000 1
152616.375000 497656.156000 -1.135000 0
152616.469000 497656.500000 -3.500000 0
152616.375000 497656.156000 -3.417000 0
152616.203000 497655.406000 -0.766000 1
152616.281000 497655.781000 -3.392000 0
152616.125000 497655.156000 -1.111000 1
152616.203000 497655.469000 -3.419000 0
152616.031000 497654.719000 -0.460000 1
152616.141000 497655.156000 -3.539000 0
152616.047000 497654.844000 -3.579000 0
152615.750000 497653.563000 3.165000 1
152615.969000 497654.531000 -3.529000 0
152615.625000 497653.063000 4.603000 0
152615.656000 497653.219000 3.465000 1
152615.906000 497654.219000 -3.570000 0
152615.547000 497652.750000 4.472000 0
152615.625000 497653.063000 2.239000 0
152615.813000 497653.875000 -3.606000 0
152615.719000 497653.531000 -3.505000 0
152615.656000 497653.219000 -3.438000 0
152615.313000 497651.813000 4.190000 1
152615.375000 497652.094000 2.130000 1
152615.219000 497651.438000 4.213000 1
152615.313000 497651.844000 1.370000 1
152615.141000 497651.125000 4.266000 1
152615.266000 497651.594000 0.885000 1
152615.078000 497650.875000 3.957000 1
152615.188000 497651.313000 0.791000 1
152615.016000 497650.625000 3.061000 1
152615.125000 497651.094000 -0.113000 1
152615.234000 497651.563000 -3.579000 0
152614.969000 497650.406000 2.448000 1
152615.063000 497650.781000 -0.231000 0
152615.172000 497651.250000 -3.577000 0
152614.953000 497650.375000 0.321000 0
152615.078000 497650.938000 -3.583000 0
152614.922000 497650.281000 -1.203000 0
152615.000000 497650.594000 -3.618000 0
152614.781000 497649.656000 0.961000 0
152614.859000 497649.969000 -1.347000 0
152614.922000 497650.281000 -3.570000 0
152614.844000 497649.969000 -3.444000 0
152614.766000 497649.656000 -3.589000 0
152614.688000 497649.313000 -3.564000 0
152614.609000 497649.031000 -3.589000 0
152614.531000 497648.719000 -3.616000 0
152614.406000 497648.188000 -2.271000 0
152614.453000 497648.344000 -3.506000 0
152614.375000 497648.063000 -3.559000 0
152614.297000 497647.719000 -3.538000 0
152614.125000 497647.063000 -1.373000 0
152614.203000 497647.344000 -3.402000 0
152614.125000 497647.063000 -3.507000 0
152614.047000 497646.750000 -3.565000 0
152613.969000 497646.406000 -3.526000 0
152613.875000 497646.063000 -3.545000 0
152613.797000 497645.750000 -3.517000 0
152613.719000 497645.406000 -3.390000 0
152613.594000 497644.875000 -2.104000 0
152613.625000 497645.063000 -3.519000 0
152613.563000 497644.781000 -3.513000 0
152613.484000 497644.469000 -3.607000 0
152613.359000 497643.938000 -2.124000 0
152613.406000 497644.125000 -3.560000 0
152613.266000 497643.594000 -1.858000 0
152613.313000 497643.781000 -3.391000 0
152613.234000 497643.438000 -3.308000 0
152613.156000 497643.125000 -3.396000 0
152613.031000 497642.625000 -2.070000 0
152613.078000 497642.813000 -3.454000 0
152613.000000 497642.500000 -3.549000 0
152612.906000 497642.125000 -3.502000 0
152612.719000 497641.375000 0.022000 1
152612.828000 497641.844000 -3.569000 0
152612.641000 497641.063000 -0.010000 1
152612.703000 497641.313000 -1.943000 0
152612.750000 497641.531000 -3.584000 0
152612.641000 497641.031000 -2.382000 0
152612.672000 497641.188000 -3.558000 0
152612.547000 497640.656000 -2.121000 0
152612.594000 497640.844000 -3.544000 0
152612.516000 497640.531000 -3.421000 0
152612.438000 497640.219000 -3.481000 0
152612.359000 497639.906000 -3.575000 0
152612.219000 497639.344000 -1.519000 1
152612.281000 497639.594000 -3.484000 0
152612.203000 497639.281000 -3.470000 0
152612.063000 497638.750000 -2.012000 1
152612.109000 497638.938000 -3.444000 0
152612.047000 497638.656000 -3.590000 0
152611.906000 497638.094000 -1.675000 1
152611.969000 497638.344000 -3.590000 0
152611.828000 497637.781000 -1.925000 1
152611.891000 497638.000000 -3.642000 0
152611.766000 497637.563000 -2.664000 0
152611.797000 497637.656000 -3.562000 0
152611.719000 497637.344000 -3.495000 0
152611.641000 497637.000000 -3.454000 0
152611.547000 497636.656000 -3.426000 0
152611.469000 497636.344000 -3.356000 0
152611.281000 497635.563000 0.180000 1
152611.391000 497636.031000 -3.543000 0
152611.188000 497635.188000 0.357000 1
152611.313000 497635.688000 -3.542000 0
152611.109000 497634.875000 0.445000 1
152611.234000 497635.344000 -3.418000 0
152611.094000 497634.844000 -1.931000 0
152611.156000 497635.031000 -3.586000 0
152611.063000 497634.719000 -3.624000 0
152622.984000 497684.500000 -3.564000 0
152622.891000 497684.156000 -3.617000 0
152622.813000 497683.844000 -3.524000 0
152622.734000 497683.500000 -3.474000 0
152622.594000 497682.938000 -2.143000 0
152622.656000 497683.188000 -3.586000 0
152622.563000 497682.844000 -3.464000 0
152622.484000 497682.500000 -3.420000 0
152622.406000 497682.188000 -3.409000 0
152622.344000 497681.906000 -3.527000 0
152622.266000 497681.594000 -3.544000 0
152622.172000 497681.219000 -3.477000 0
152622.094000 497680.906000 -3.524000 0
152621.797000 497679.656000 2.291000 1
152622.016000 497680.625000 -3.563000 0
152621.938000 497680.281000 -3.641000 0
152621.625000 497679.000000 2.163000 1
152621.719000 497679.406000 -0.302000 0
152621.859000 497679.969000 -3.618000 0
152621.656000 497679.094000 -0.347000 0
152621.781000 497679.625000 -3.590000 0
152621.500000 497678.500000 1.225000 1
152621.688000 497679.250000 -3.529000 0
152621.422000 497678.219000 1.033000 1
152621.609000 497678.969000 -3.590000 0
152621.344000 497677.844000 1.467000 1
152621.531000 497678.656000 -3.566000 0
152621.453000 497678.313000 -3.573000 0
152621.172000 497677.156000 1.526000 1
152621.359000 497677.969000 -3.653000 0
152621.078000 497676.781000 1.815000 1
152621.172000 497677.156000 -0.559000 1
152621.281000 497677.656000 -3.629000 0
152621.000000 497676.500000 1.502000 1
152621.109000 497676.938000 -1.230000 0
152621.203000 497677.313000 -3.599000 0
152620.938000 497676.188000 1.134000 1
152621.109000 497676.938000 -3.568000 0
152620.828000 497675.781000 1.758000 1
152621.000000 497676.469000 -2.515000 0
152621.031000 497676.656000 -3.636000 0
152620.938000 497676.250000 -3.095000 0
152620.656000 497675.094000 2.027000 0
152620.797000 497675.656000 -1.386000 1
152620.859000 497675.969000 -3.308000 0
152620.594000 497674.875000 1.493000 0
152620.703000 497675.281000 -1.120000 1
152620.797000 497675.656000 -3.513000 0
152620.719000 497675.375000 -3.690000 0
152620.531000 497674.625000 -1.153000 1
152620.641000 497675.031000 -3.671000 0
152620.438000 497674.250000 -0.822000 1
152620.547000 497674.688000 -3.577000 0
152620.469000 497674.344000 -3.562000 0
152620.375000 497674.000000 -3.498000 0
152620.297000 497673.656000 -3.424000 0
152620.219000 497673.344000 -3.464000 0
152620.141000 497673.000000 -3.419000 0
152620.047000 497672.656000 -3.339000 0
152619.969000 497672.344000 -3.385000 0
152619.875000 497671.938000 -2.730000 0
152619.813000 497671.719000 -3.398000 0
152619.734000 497671.406000 -3.338000 0
152619.656000 497671.063000 -3.311000 0
152619.578000 497670.750000 -3.381000 0
152619.500000 497670.406000 -3.289000 0
152619.406000 497670.094000 -3.291000 0
152619.328000 497669.781000 -3.343000 0
152619.188000 497669.188000 -1.858000 0
152619.250000 497669.438000 -3.460000 0
152619.141000 497668.969000 -2.490000 0
152619.000000 497668.375000 -0.708000 0
152619.078000 497668.719000 -2.841000 0
152618.938000 497668.156000 -1.335000 0
152619.016000 497668.469000 -3.448000 0
152618.938000 497668.156000 -3.512000 0
152618.844000 497667.813000 -3.434000 0
152618.766000 497667.500000 -3.557000 0
152618.688000 497667.156000 -3.474000 0
152618.609000 497666.813000 -3.510000 0
152618.516000 497666.500000 -3.457000 0
152618.438000 497666.156000 -3.371000 0
152618.359000 497665.875000 -3.444000 0
152618.281000 497665.563000 -3.536000 0
152618.203000 497665.188000 -3.407000 0
152618.125000 497664.875000 -3.343000 0
152618.031000 497664.563000 -3.480000 0
152617.953000 497664.188000 -3.464000 0
152617.875000 497663.875000 -3.529000 0
152617.750000 497663.344000 -2.060000 0
152617.797000 497663.563000 -3.523000 0
152617.703000 497663.219000 -3.531000 0
152617.641000 497662.938000 -3.581000 0
152617.391000 497661.906000 0.943000 1
152617.547000 497662.594000 -3.626000 0
152617.313000 497661.594000 0.916000 1
152617.469000 497662.250000 -3.610000 0
152617.234000 497661.313000 0.719000 1
152617.391000 497661.938000 -3.551000 0
152617.188000 497661.063000 0.444000 1
152617.313000 497661.625000 -3.413000 0
152617.234000 497661.281000 -3.321000 0
152617.156000 497660.969000 -3.488000 0
152617.078000 497660.656000 -3.477000 0
152617.000000 497660.344000 -3.443000 0
152616.906000 497660.000000 -3.520000 0
152616.844000 497659.719000 -3.575000 0
152616.766000 497659.375000 -3.587000 0
152616.516000 497658.344000 1.132000 1
152616.672000 497659.031000 -3.645000 0
152616.422000 497658.000000 1.301000 1
152616.594000 497658.719000 -3.558000 0
152616.359000 497657.719000 1.165000 1
152616.516000 497658.406000 -3.586000 0
152616.266000 497657.375000 1.206000 1
152616.438000 497658.063000 -3.557000 0
152616.219000 497657.156000 0.387000 1
152616.344000 497657.719000 -3.559000 0
152616.156000 497656.906000 -0.156000 1
152616.266000 497657.406000 -3.619000 0
152616.063000 497656.563000 -0.017000 1
152616.188000 497657.094000 -3.689000 0
152615.984000 497656.219000 -0.023000 1
152616.109000 497656.719000 -3.621000 0
152616.031000 497656.406000 -3.408000 0
152615.844000 497655.656000 -0.479000 1
152615.953000 497656.094000 -3.540000 0
152615.766000 497655.375000 -0.715000 1
152615.859000 497655.781000 -3.536000 0
152615.703000 497655.125000 -1.191000 1
152615.781000 497655.438000 -3.537000 0
152615.703000 497655.125000 -3.535000 0
152615.625000 497654.781000 -3.568000 0
152615.297000 497653.438000 3.680000 1
152615.469000 497654.156000 -1.264000 0
152615.547000 497654.469000 -3.515000 0
152615.219000 497653.094000 3.706000 1
152615.453000 497654.125000 -3.560000 0
152615.109000 497652.688000 4.227000 1
152615.375000 497653.781000 -3.508000 0
152615.047000 497652.375000 4.111000 1
152615.281000 497653.438000 -3.288000 0
152615.063000 497652.500000 1.162000 0
152615.219000 497653.125000 -3.393000 0
152615.125000 497652.813000 -3.464000 0
152614.813000 497651.469000 3.649000 1
152614.922000 497651.938000 0.276000 1
152615.047000 497652.500000 -3.643000 0
152614.813000 497651.500000 1.290000 0
152614.672000 497650.938000 3.049000 1
152614.781000 497651.375000 -0.061000 1
152614.609000 497650.656000 2.673000 0
152614.719000 497651.094000 -0.532000 1
152614.672000 497650.938000 -1.399000 1
152614.656000 497650.906000 -3.640000 0
152614.453000 497650.031000 0.319000 0
152614.578000 497650.594000 -3.625000 0
152614.500000 497650.281000 -3.625000 0
152614.422000 497649.938000 -3.499000 0
152614.281000 497649.375000 -1.927000 0
152614.344000 497649.625000 -3.617000 0
152614.219000 497649.094000 -2.293000 0
152614.266000 497649.281000 -3.588000 0
152614.172000 497648.938000 -3.493000 0
152614.031000 497648.344000 -1.559000 0
152614.094000 497648.625000 -3.536000 0
152614.016000 497648.313000 -3.600000 0
152613.938000 497648.000000 -3.549000 0
152613.781000 497647.375000 -1.582000 0
152613.859000 497647.656000 -3.569000 0
152613.766000 497647.313000 -3.612000 0
152613.688000 497647.000000 -3.579000 0
152613.609000 497646.656000 -3.588000 0
152613.531000 497646.313000 -3.576000 0
152613.375000 497645.719000 -1.318000 0
152613.453000 497646.000000 -3.570000 0
152613.375000 497645.719000 -3.611000 0
152613.281000 497645.344000 -3.428000 0
152613.203000 497645.031000 -3.517000 0
152613.125000 497644.719000 -3.502000 0
152613.047000 497644.375000 -3.475000 0
152612.969000 497644.031000 -3.553000 0
152612.875000 497643.656000 -3.114000 0
152612.797000 497643.344000 -3.225000 0
152612.719000 497643.031000 -3.450000 0
152612.500000 497642.156000 0.995000 1
152612.453000 497641.938000 -0.016000 0
152612.359000 497641.594000 0.169000 1
152612.469000 497642.094000 -3.408000 0
152612.406000 497641.813000 -3.596000 0
152612.203000 497640.969000 0.260000 1
152612.328000 497641.500000 -3.596000 0
152612.156000 497640.750000 -0.408000 1
152612.188000 497640.938000 -1.835000 0
152612.250000 497641.156000 -3.552000 0
152612.125000 497640.625000 -2.024000 0
152612.172000 497640.844000 -3.592000 0
152612.031000 497640.250000 -1.571000 0
152612.094000 497640.531000 -3.545000 0
152612.016000 497640.219000 -3.596000 0
152611.922000 497639.844000 -3.577000 0
152611.859000 497639.563000 -3.522000 0
152611.766000 497639.219000 -3.495000 0
152611.625000 497638.625000 -1.677000 1
152611.688000 497638.875000 -3.590000 0
152611.609000 497638.594000 -3.560000 0
152611.531000 497638.250000 -3.575000 0
152611.453000 497637.906000 -3.595000 0
152611.359000 497637.594000 -3.549000 0
152611.281000 497637.281000 -3.561000 0
152611.203000 497636.906000 -3.493000 0
152611.109000 497636.563000 -3.436000 0
152611.047000 497636.281000 -3.482000 0
152610.953000 497635.969000 -3.572000 0
152610.875000 497635.656000 -3.553000 0
152610.797000 497635.313000 -3.425000 0
152610.719000 497634.969000 -3.443000 0
152610.641000 497634.656000 -3.505000 0
152622.531000 497684.438000 -2.179000 0
152622.438000 497684.063000 -1.976000 0
152622.500000 497684.344000 -3.587000 0
152622.422000 497684.063000 -3.580000 0
152622.344000 497683.719000 -3.488000 0
152622.203000 497683.156000 -2.114000 0
152622.266000 497683.375000 -3.546000 0
152622.172000 497683.031000 -3.448000 0
152622.094000 497682.750000 -3.480000 0
152622.016000 497682.406000 -3.520000 0
152621.938000 497682.063000 -3.531000 0
152621.859000 497681.781000 -3.461000 0
152621.766000 497681.406000 -3.475000 0
152621.688000 497681.063000 -3.483000 0
152621.609000 497680.750000 -3.324000 0
152621.531000 497680.438000 -3.489000 0
152621.453000 497680.125000 -3.620000 0
152621.375000 497679.781000 -3.542000 0
152621.281000 497679.438000 -3.535000 0
152621.188000 497679.094000 -3.482000 0
152621.109000 497678.750000 -3.482000 0
152620.859000 497677.719000 0.948000 1
152621.047000 497678.469000 -3.635000 0
152620.828000 497677.594000 -0.167000 0
152620.953000 497678.125000 -3.584000 0
152620.750000 497677.281000 -0.298000 1
152620.875000 497677.813000 -3.583000 0
152620.703000 497677.094000 -1.051000 1
152620.656000 497676.906000 -2.013000 0
152620.609000 497676.688000 -2.759000 0
152620.484000 497676.188000 -1.566000 1
152620.547000 497676.469000 -3.379000 0
152620.281000 497675.375000 1.269000 1
152620.375000 497675.750000 -1.019000 1
152620.469000 497676.156000 -3.608000 0
152620.281000 497675.375000 -0.922000 1
152620.391000 497675.813000 -3.619000 0
152620.203000 497675.094000 -0.872000 1
152620.313000 497675.531000 -3.665000 0
152620.125000 497674.750000 -0.868000 1
152620.234000 497675.188000 -3.632000 0
152620.141000 497674.813000 -3.418000 0
152620.063000 497674.531000 -3.516000 0
152619.984000 497674.219000 -3.532000 0
152619.906000 497673.875000 -3.478000 0
152619.813000 497673.500000 -3.271000 0
152619.672000 497672.938000 -1.396000 0
152619.734000 497673.188000 -3.137000 0
152619.578000 497672.563000 -1.368000 0
152619.656000 497672.844000 -3.284000 0
152619.516000 497672.313000 -1.717000 0
152619.578000 497672.563000 -3.463000 0
152619.500000 497672.250000 -3.392000 0
152619.422000 497671.906000 -3.315000 0
152619.344000 497671.625000 -3.530000 0
152619.266000 497671.250000 -3.359000 0
152619.172000 497670.938000 -3.351000 0
152619.094000 497670.563000 -3.252000 0
152619.016000 497670.313000 -3.380000 0
152618.938000 497669.938000 -3.263000 0
152618.844000 497669.625000 -3.455000 0
152618.781000 497669.313000 -3.551000 0
152618.688000 497668.969000 -3.528000 0
152618.594000 497668.594000 -3.269000 0
152618.516000 497668.281000 -3.406000 0
152618.359000 497667.594000 -0.868000 0
152618.453000 497668.000000 -3.482000 0
152618.375000 497667.688000 -3.545000 0
152618.203000 497667.031000 -1.459000 0
152618.281000 497667.344000 -3.495000 0
152618.203000 497667.000000 -3.441000 0
152618.047000 497666.344000 -1.211000 0
152618.125000 497666.656000 -3.350000 0
152618.031000 497666.344000 -3.398000 0
152617.969000 497666.031000 -3.495000 0
152617.875000 497665.688000 -3.454000 0
152617.688000 497664.938000 -0.654000 0
152617.797000 497665.344000 -3.394000 0
152617.641000 497664.719000 -3.310000 0
152617.547000 497664.375000 -3.518000 0
152617.406000 497663.750000 -3.489000 0
152617.313000 497663.438000 -3.478000 0
152617.172000 497662.844000 -1.858000 0
152617.234000 497663.094000 -3.495000 0
152617.125000 497662.656000 -2.651000 0
152617.156000 497662.813000 -3.622000 0
152617.078000 497662.469000 -3.538000 0
152617.000000 497662.156000 -3.544000 0
152616.844000 497661.531000 -1.571000 0
152616.922000 497661.813000 -3.563000 0
152616.844000 497661.500000 -3.491000 0
152616.750000 497661.156000 -3.549000 0
152616.672000 497660.844000 -3.544000 0
152616.594000 497660.531000 -3.556000 0
152616.516000 497660.188000 -3.496000 0
152616.438000 497659.844000 -3.523000 0
152616.359000 497659.563000 -3.568000 0
152616.266000 497659.219000 -3.584000 0
152616.016000 497658.125000 1.416000 1
152616.188000 497658.844000 -3.546000 0
152615.984000 497658.000000 0.146000 1
152616.109000 497658.531000 -3.601000 0
152615.891000 497657.656000 0.229000 1
152616.031000 497658.219000 -3.532000 0
152615.938000 497657.875000 -3.499000 0
152615.766000 497657.125000 -0.438000 1
152615.875000 497657.563000 -3.509000 0
152615.641000 497656.594000 0.902000 0
152615.688000 497656.875000 -0.852000 1
152615.781000 497657.250000 -3.605000 0
152615.703000 497656.906000 -3.653000 0
152615.531000 497656.219000 -0.856000 1
152615.625000 497656.594000 -3.578000 0
152615.438000 497655.844000 -0.559000 1
152615.547000 497656.281000 -3.555000 0
152615.453000 497655.906000 -3.584000 0
152615.375000 497655.594000 -3.665000 0
152615.297000 497655.281000 -3.575000 0
152615.203000 497654.906000 -3.462000 0
152615.141000 497654.625000 -3.606000 0
152614.828000 497653.344000 3.270000 1
152615.063000 497654.313000 -3.552000 0
152614.750000 497653.031000 3.166000 1
152614.984000 497654.000000 -3.653000 0
152614.672000 497652.688000 3.268000 1
152614.891000 497653.656000 -3.574000 0
152614.594000 497652.406000 3.111000 0
152614.656000 497652.656000 1.412000 0
152614.703000 497652.844000 -0.122000 0
152614.813000 497653.344000 -3.590000 0
152614.500000 497652.031000 3.553000 0
152614.578000 497652.344000 1.445000 1
152614.625000 497652.563000 -0.112000 0
152614.750000 497653.031000 -3.576000 0
152614.516000 497652.094000 0.499000 1
152614.656000 497652.688000 -3.643000 0
152614.578000 497652.375000 -3.588000 0
152614.313000 497651.250000 2.340000 1
152614.438000 497651.750000 -1.324000 0
152614.516000 497652.094000 -3.652000 0
152614.234000 497650.938000 1.928000 0
152614.172000 497650.688000 1.630000 0
152614.281000 497651.125000 -1.610000 0
152614.234000 497650.969000 -2.717000 0
152614.031000 497650.156000 0.757000 0
152614.156000 497650.688000 -3.185000 0
152614.094000 497650.406000 -3.555000 0
152614.031000 497650.125000 -3.607000 0
152613.938000 497649.781000 -3.545000 0
152613.859000 497649.438000 -3.567000 0
152613.766000 497649.094000 -3.431000 0
152613.609000 497648.469000 -1.165000 0
152613.688000 497648.781000 -3.541000 0
152613.609000 497648.438000 -3.532000 0
152613.422000 497647.656000 -0.045000 0
152613.531000 497648.125000 -3.428000 0
152613.391000 497647.563000 -1.684000 0
152613.453000 497647.813000 -3.623000 0
152613.375000 497647.469000 -3.508000 0
152613.281000 497647.156000 -3.461000 0
152613.141000 497646.594000 -1.657000 0
152613.203000 497646.813000 -3.415000 0
152613.125000 497646.500000 -3.466000 0
152613.047000 497646.188000 -3.601000 0
152612.969000 497645.844000 -3.458000 0
152612.813000 497645.250000 -1.605000 0
152612.875000 497645.500000 -3.578000 0
152612.750000 497645.000000 -2.247000 0
152612.797000 497645.188000 -3.503000 0
152612.719000 497644.875000 -3.602000 0
152612.641000 497644.531000 -3.425000 0
152612.547000 497644.188000 -3.405000 0
152612.469000 497643.844000 -3.000000 0
152612.250000 497642.938000 1.365000 1
152612.406000 497643.563000 -3.420000 0
152612.172000 497642.625000 1.359000 1
152612.313000 497643.250000 -3.387000 0
152612.094000 497642.313000 1.378000 1
152612.250000 497642.938000 -3.415000 0
152612.016000 497642.000000 1.177000 1
152612.156000 497642.625000 -3.340000 0
152611.969000 497641.813000 0.203000 1
152612.094000 497642.313000 -3.590000 0
152611.891000 497641.469000 0.408000 1
152612.016000 497642.000000 -3.587000 0
152611.813000 497641.188000 0.268000 1
152611.938000 497641.688000 -3.540000 0
152611.703000 497640.719000 1.156000 1
152611.734000 497640.875000 -0.047000 1
152611.844000 497641.344000 -3.541000 0
152611.625000 497640.375000 1.093000 0
152611.656000 497640.531000 0.025000 1
152611.766000 497640.969000 -3.442000 0
152611.547000 497640.063000 1.154000 0
152611.688000 497640.688000 -3.477000 0
152611.609000 497640.375000 -3.471000 0
152611.531000 497640.031000 -3.568000 0
152611.391000 497639.500000 -1.820000 0
152611.453000 497639.719000 -3.587000 0
152611.313000 497639.156000 -1.778000 0
152611.359000 497639.375000 -3.573000 0
152611.219000 497638.781000 -1.610000 1
152611.281000 497639.031000 -3.591000 0
152611.188000 497638.719000 -3.546000 0
152611.109000 497638.375000 -3.514000 0
152610.984000 497637.813000 -1.680000 0
152611.031000 497638.063000 -3.497000 0
152610.953000 497637.750000 -3.537000 0
152610.875000 497637.438000 -3.486000 0
152610.797000 497637.094000 -3.467000 0
152610.656000 497636.500000 -1.435000 0
152610.719000 497636.750000 -3.472000 0
152610.641000 497636.469000 -3.521000 0
152610.516000 497635.938000 -2.064000 0
152610.563000 497636.125000 -3.532000 0
152610.469000 497635.781000 -3.519000 0
152610.391000 497635.438000 -3.500000 0
152610.266000 497634.938000 -1.833000 0
152610.313000 497635.125000 -3.454000 0
152610.234000 497634.813000 -3.493000 0
152610.141000 497634.469000 -3.487000 0
152622.172000 497684.469000 -3.587000 0
152622.094000 497684.156000 -3.558000 0
152622.016000 497683.844000 -3.549000 0
152621.938000 497683.469000 -3.543000 0
152621.797000 497682.938000 -2.273000 0
152621.859000 497683.156000 -3.485000 0
152621.766000 497682.844000 -3.445000 0
152621.688000 497682.500000 -3.547000 0
152621.609000 497682.156000 -3.567000 0
152621.531000 497681.875000 -3.604000 0
152621.453000 497681.531000 -3.562000 0
152621.359000 497681.188000 -3.537000 0
152621.281000 497680.844000 -3.401000 0
152621.203000 497680.500000 -3.420000 0
152621.063000 497679.938000 -2.131000 0
152621.109000 497680.188000 -3.635000 0
152621.031000 497679.844000 -3.544000 0
152620.969000 497679.563000 -3.514000 0
152620.688000 497678.406000 1.519000 0
152620.875000 497679.219000 -3.516000 0
152620.594000 497678.031000 1.724000 0
152620.797000 497678.875000 -3.563000 0
152620.719000 497678.563000 -3.547000 0
152620.641000 497678.219000 -3.503000 0
152620.344000 497677.031000 1.698000 1
152620.422000 497677.344000 -0.301000 1
152620.547000 497677.875000 -3.547000 0
152620.281000 497676.781000 1.288000 1
152620.344000 497677.063000 -0.325000 1
152620.469000 497677.594000 -3.610000 0
152620.266000 497676.719000 -0.360000 1
152620.391000 497677.250000 -3.652000 0
152620.109000 497676.094000 1.534000 1
152620.203000 497676.469000 -0.972000 1
152620.313000 497676.906000 -3.671000 0
152620.219000 497676.563000 -3.580000 0
152620.031000 497675.781000 -0.438000 1
152620.156000 497676.281000 -3.628000 0
152619.906000 497675.281000 0.371000 0
152620.063000 497675.938000 -3.647000 0
152619.844000 497675.031000 0.073000 0
152619.984000 497675.625000 -3.647000 0
152619.906000 497675.313000 -3.605000 0
152619.828000 497674.938000 -3.446000 0
152619.672000 497674.344000 -1.620000 0
152619.734000 497674.625000 -3.414000 0
152619.672000 497674.313000 -3.487000 0
152619.578000 497673.969000 -3.381000 0
152619.500000 497673.656000 -3.422000 0
152619.422000 497673.344000 -3.454000 0
152619.266000 497672.688000 -1.280000 0
152619.344000 497673.000000 -3.352000 0
152619.266000 497672.688000 -3.518000 0
152619.172000 497672.344000 -3.484000 0
152619.094000 497672.031000 -3.442000 0
152619.016000 497671.688000 -3.477000 0
152618.938000 497671.375000 -3.457000 0
152618.844000 497671.031000 -3.285000 0
152618.688000 497670.344000 -3.370000 0
152618.609000 497670.031000 -3.323000 0
152618.438000 497669.375000 -1.311000 0
152618.531000 497669.719000 -3.430000 0
152618.438000 497669.375000 -3.467000 0
152618.297000 497668.750000 -1.322000 0
152618.375000 497669.094000 -3.420000 0
152618.281000 497668.719000 -3.255000 0
152618.188000 497668.375000 -3.378000 0
152618.125000 497668.094000 -3.407000 0
152618.047000 497667.750000 -3.469000 0
152617.875000 497667.094000 -1.314000 0
152617.953000 497667.438000 -3.558000 0
152617.875000 497667.094000 -3.477000 0
152617.797000 497666.781000 -3.517000 0
152617.719000 497666.438000 -3.540000 0
152617.625000 497666.094000 -3.456000 0
152617.547000 497665.781000 -3.423000 0
152617.469000 497665.469000 -3.543000 0
152617.391000 497665.125000 -3.482000 0
152617.313000 497664.844000 -3.537000 0
152617.234000 497664.500000 -3.367000 0
152617.141000 497664.156000 -3.406000 0
152617.078000 497663.844000 -3.392000 0
152617.000000 497663.563000 -3.527000 0
152616.859000 497663.000000 -2.020000 0
152616.922000 497663.219000 -3.612000 0
152616.844000 497662.906000 -3.550000 0
152616.766000 497662.594000 -3.515000 0
152616.672000 497662.219000 -3.475000 0
152616.531000 497661.656000 -1.750000 0
152616.594000 497661.906000 -3.481000 0
152616.453000 497661.313000 -1.573000 0
152616.516000 497661.625000 -3.536000 0
152616.422000 497661.250000 -3.484000 0
152616.344000 497660.906000 -3.543000 0
152616.266000 497660.594000 -3.548000 0
152616.188000 497660.281000 -3.596000 0
152616.094000 497659.906000 -3.509000 0
152616.016000 497659.625000 -3.529000 0
152615.938000 497659.281000 -3.474000 0
152615.719000 497658.375000 0.512000 0
152615.859000 497658.969000 -3.504000 0
152615.656000 497658.094000 0.261000 0
152615.781000 497658.656000 -3.573000 0
152615.563000 497657.719000 0.645000 1
152615.703000 497658.313000 -3.601000 0
152615.516000 497657.500000 -0.301000 1
152615.625000 497658.000000 -3.583000 0
152615.391000 497657.063000 0.592000 0
152615.547000 497657.656000 -3.604000 0
152615.453000 497657.344000 -3.585000 0
152615.266000 497656.500000 -0.225000 1
152615.375000 497657.000000 -3.608000 0
152615.188000 497656.219000 -0.533000 1
152615.297000 497656.656000 -3.644000 0
152615.125000 497656.000000 -1.034000 1
152615.219000 497656.375000 -3.673000 0
152615.141000 497656.031000 -3.616000 0
152615.047000 497655.688000 -3.622000 0
152614.984000 497655.375000 -3.630000 0
152614.891000 497655.031000 -3.439000 0
152614.813000 497654.688000 -3.330000 0
152614.734000 497654.406000 -3.471000 0
152614.656000 497654.094000 -3.452000 0
152614.578000 497653.750000 -3.596000 0
152614.391000 497653.000000 -0.310000 0
152614.500000 497653.469000 -3.633000 0
152614.234000 497652.344000 2.102000 0
152614.422000 497653.156000 -3.621000 0
152614.344000 497652.813000 -3.597000 0
152614.250000 497652.438000 -3.434000 0
152614.172000 497652.125000 -3.370000 0
152613.984000 497651.375000 -0.397000 1
152614.094000 497651.813000 -3.568000 0
152613.922000 497651.125000 -0.958000 1
152614.016000 497651.500000 -3.654000 0
152613.844000 497650.781000 -0.780000 1
152613.938000 497651.188000 -3.605000 0
152613.750000 497650.438000 -0.616000 0
152613.859000 497650.844000 -3.506000 0
152613.766000 497650.500000 -3.577000 0
152613.688000 497650.188000 -3.635000 0
152613.547000 497649.594000 -1.750000 0
152613.609000 497649.844000 -3.643000 0
152613.516000 497649.500000 -3.569000 0
152613.438000 497649.188000 -3.460000 0
152613.375000 497648.906000 -3.535000 0
152613.281000 497648.563000 -3.527000 0
152613.203000 497648.188000 -3.526000 0
152613.078000 497647.719000 -2.158000 0
152613.125000 497647.906000 -3.576000 0
152613.047000 497647.563000 -3.471000 0
152612.953000 497647.219000 -3.523000 0
152612.875000 497646.906000 -3.532000 0
152612.734000 497646.313000 -1.399000 0
152612.797000 497646.594000 -3.581000 0
152612.719000 497646.250000 -3.525000 0
152612.641000 497645.906000 -3.382000 0
152612.563000 497645.594000 -3.509000 0
152612.484000 497645.281000 -3.598000 0
152612.391000 497644.938000 -3.380000 0
152612.313000 497644.656000 -3.363000 0
152612.234000 497644.313000 -3.346000 0
152612.016000 497643.406000 1.008000 1
152612.156000 497643.969000 -3.318000 0
152611.922000 497643.031000 1.564000 1
152612.078000 497643.688000 -3.359000 0
152611.844000 497642.719000 1.422000 1
152612.000000 497643.375000 -3.516000 0
152611.766000 497642.406000 1.331000 1
152611.922000 497643.031000 -3.397000 0
152611.703000 497642.156000 0.996000 1
152611.563000 497641.594000 2.610000 1
152611.625000 497641.813000 0.850000 1
152611.672000 497642.031000 -0.806000 0
152611.766000 497642.406000 -3.550000 0
152611.500000 497641.281000 2.305000 1
152611.672000 497642.063000 -3.497000 0
152611.422000 497641.031000 2.062000 1
152611.484000 497641.281000 0.238000 1
152611.609000 497641.750000 -3.508000 0
152611.359000 497640.781000 1.577000 1
152611.531000 497641.438000 -3.496000 0
152611.281000 497640.406000 1.672000 1
152611.438000 497641.063000 -3.382000 0
152611.250000 497640.313000 0.057000 0
152611.313000 497640.563000 -1.912000 0
152611.359000 497640.750000 -3.347000 0
152611.281000 497640.438000 -3.445000 0
152611.188000 497640.094000 -3.610000 0
152611.109000 497639.781000 -3.586000 0
152611.031000 497639.469000 -3.594000 0
152610.953000 497639.156000 -3.541000 0
152610.875000 497638.813000 -3.518000 0
152610.797000 497638.500000 -3.529000 0
152610.719000 497638.188000 -3.618000 0
152610.641000 497637.844000 -3.539000 0
152610.547000 497637.500000 -3.443000 0
152610.469000 497637.188000 -3.394000 0
152610.375000 497636.813000 -3.418000 0
152610.313000 497636.531000 -3.554000 0
152610.234000 497636.219000 -3.573000 0
152610.141000 497635.875000 -3.471000 0
152610.031000 497635.406000 -2.384000 0
152610.063000 497635.531000 -3.479000 0
152609.984000 497635.250000 -3.464000 0
152609.906000 497634.938000 -3.542000 0
152609.828000 497634.594000 -3.364000 0
152621.766000 497684.469000 -3.597000 0
152621.672000 497684.094000 -3.490000 0
152621.594000 497683.813000 -3.577000 0
152621.516000 497683.469000 -3.484000 0
152621.422000 497683.125000 -3.472000 0
152621.344000 497682.813000 -3.516000 0
152621.266000 497682.500000 -3.630000 0
152621.188000 497682.125000 -3.561000 0
152621.094000 497681.781000 -3.472000 0
152621.016000 497681.469000 -3.501000 0
152620.938000 497681.156000 -3.513000 0
152620.859000 497680.844000 -3.493000 0
152620.781000 497680.500000 -3.441000 0
