154272.094000 496308.094000 0.529000 0
154272.188000 496308.156000 0.178000 0
154270.422000 496308.938000 -0.371000 0
154271.734000 496308.406000 0.110000 0
154271.422000 496308.625000 -0.684000 0
154271.188000 496307.313000 0.212000 0
154271.672000 496308.125000 0.206000 0
154270.625000 496308.906000 -0.455000 0
154270.078000 496308.500000 -0.299000 0
154271.578000 496307.750000 0.172000 0
154270.141000 496308.438000 -0.264000 0
154270.813000 496308.844000 -0.436000 0
154271.438000 496307.813000 0.205000 0
154271.297000 496308.375000 -0.656000 0
154271.031000 496308.719000 -0.441000 0
154270.500000 496308.656000 -0.330000 0
154270.547000 496308.594000 -0.321000 0
154270.891000 496308.531000 -0.454000 0
154271.188000 496307.719000 -0.221000 0
154271.281000 496308.063000 -0.205000 0
154270.578000 496308.281000 -0.353000 0
154270.938000 496308.375000 -0.395000 0
154270.969000 496308.219000 -0.213000 0
154271.125000 496307.594000 -0.360000 0
154270.469000 496308.281000 -0.210000 0
154271.109000 496307.406000 -0.011000 0
154270.000000 496308.188000 -0.195000 0
154270.656000 496308.000000 -0.197000 0
154270.219000 496308.063000 -0.386000 0
154269.891000 496308.031000 -0.230000 0
154269.906000 496307.844000 -0.534000 0
154270.781000 496307.750000 -0.101000 0
154270.313000 496307.719000 -0.627000 0
154269.969000 496307.656000 -0.612000 0
154270.391000 496307.969000 -0.277000 0
154270.719000 496307.719000 -0.096000 0
154269.688000 496307.125000 -0.086000 0
154269.766000 496307.281000 -0.098000 0
154270.297000 496307.625000 -0.216000 0
154270.047000 496307.375000 -0.166000 0
154270.797000 496307.375000 -0.085000 0
154270.125000 496307.063000 -0.107000 0
154270.141000 496307.031000 -0.087000 0
154270.906000 496307.000000 -0.620000 0
154271.375000 496306.969000 -1.173000 0
154271.063000 496306.344000 -0.809000 0
154271.703000 496306.594000 -1.258000 0
154272.375000 496305.625000 -1.351000 0
154272.125000 496305.063000 -1.020000 0
154270.453000 496304.844000 -0.019000 0
154270.328000 496304.531000 -0.318000 0
154271.234000 496304.750000 -0.639000 0
154270.359000 496304.469000 -0.312000 0
154270.281000 496304.156000 -0.233000 0
154270.500000 496303.844000 -0.459000 0
154271.266000 496304.875000 0.347000 0
154270.688000 496304.781000 -0.154000 0
154270.422000 496304.188000 -0.216000 0
154270.828000 496304.813000 -0.095000 0
154271.078000 496304.656000 0.281000 0
154270.750000 496304.500000 -0.175000 0
154270.734000 496304.469000 -0.188000 0
154270.656000 496304.188000 -0.204000 0
154270.844000 496304.156000 -0.213000 0
154270.906000 496303.875000 0.174000 0
154271.172000 496304.500000 0.045000 0
154271.000000 496303.844000 0.172000 0
154271.156000 496304.281000 0.062000 0
154271.656000 496304.719000 -0.682000 0
154271.859000 496304.625000 -0.610000 0
154271.516000 496304.469000 -0.412000 0
154271.563000 496304.406000 -0.308000 0
154271.328000 496303.438000 -0.264000 0
154271.250000 496303.906000 -0.229000 0
154271.328000 496303.625000 -0.317000 0
154271.406000 496303.781000 -0.301000 0
154271.797000 496303.688000 -0.535000 0
154272.094000 496303.625000 -0.650000 0
154272.172000 496303.594000 -0.748000 0
154271.109000 496303.094000 -1.148000 0
154272.172000 496303.313000 -0.598000 0
154271.219000 496303.031000 -1.123000 0
154271.422000 496303.188000 -1.034000 0
154271.703000 496303.281000 -0.999000 0
154271.625000 496303.000000 -1.012000 0
154272.094000 496303.250000 -0.986000 0
154272.922000 496301.875000 -1.485000 0
154272.813000 496301.438000 -2.137000 0
154273.406000 496301.031000 -2.295000 0
154272.000000 496302.906000 -1.220000 0
154272.609000 496303.063000 -1.495000 0
154273.984000 496303.625000 -1.134000 0
154274.063000 496303.250000 -1.214000 0
154272.469000 496303.313000 -0.664000 0
154274.016000 496303.406000 -1.080000 0
154272.766000 496302.844000 -1.383000 0
154273.844000 496302.750000 -1.096000 0
154273.922000 496303.094000 -1.271000 0
154273.172000 496302.844000 -1.422000 0
154272.844000 496303.156000 -1.355000 0
154273.031000 496303.000000 -1.336000 0
154273.750000 496303.094000 -0.859000 0
154273.500000 496302.844000 -1.004000 0
154273.531000 496303.000000 -0.806000 0
154273.609000 496303.344000 -0.731000 0
154273.406000 496303.250000 -0.794000 0
154272.500000 496303.500000 -0.602000 0
154273.672000 496303.438000 -0.861000 0
154272.500000 496304.844000 -1.091000 0
154272.266000 496304.438000 -1.059000 0
154273.906000 496303.938000 -1.040000 0
154272.359000 496304.063000 -1.161000 0
154272.922000 496303.406000 -0.972000 0
154272.547000 496303.625000 -0.623000 0
154273.688000 496303.625000 -0.936000 0
154272.406000 496304.531000 -1.027000 0
154273.531000 496303.969000 -1.443000 0
154273.844000 496304.250000 -1.088000 0
154272.344000 496304.219000 -0.926000 0
154273.828000 496304.250000 -1.083000 0
154273.609000 496303.719000 -1.067000 0
154273.344000 496303.531000 -0.859000 0
154273.328000 496303.531000 -0.848000 0
154272.938000 496303.531000 -0.869000 0
154272.859000 496303.688000 -1.037000 0
154273.422000 496303.844000 -1.109000 0
154273.266000 496303.813000 -1.067000 0
154272.719000 496304.250000 -0.758000 0
154272.766000 496304.031000 -0.933000 0
154273.016000 496303.844000 -0.835000 0
154273.047000 496304.688000 0.950000 0
154273.516000 496304.219000 -0.860000 0
154273.234000 496304.688000 0.993000 0
154273.375000 496303.688000 0.542000 0
154273.297000 496303.688000 0.462000 0
154272.750000 496304.125000 0.077000 0
154274.141000 496304.406000 -0.181000 0
154273.047000 496304.000000 0.381000 0
154273.219000 496303.969000 0.275000 0
154273.469000 496304.000000 0.370000 0
154273.875000 496304.344000 -0.221000 0
154273.625000 496306.219000 0.013000 0
154273.359000 496304.719000 -0.703000 0
154273.328000 496306.281000 -0.036000 0
154273.203000 496304.563000 -0.289000 0
154273.078000 496304.563000 -0.233000 0
154273.750000 496305.969000 -0.431000 0
154273.813000 496305.750000 0.199000 0
154273.875000 496305.625000 0.157000 0
154273.031000 496306.063000 0.096000 0
154273.281000 496304.875000 -0.586000 0
154273.328000 496304.813000 0.122000 0
154273.531000 496305.844000 -0.281000 0
154273.281000 496305.063000 -0.519000 0
154273.453000 496305.563000 0.202000 0
154273.469000 496305.688000 0.092000 0
154273.359000 496305.188000 -0.386000 0
154273.000000 496304.875000 -0.176000 0
154272.484000 496305.188000 0.775000 0
154273.047000 496305.563000 -0.227000 0
154271.672000 496304.813000 0.291000 0
154272.891000 496304.938000 -0.301000 0
154272.531000 496305.031000 -0.703000 0
154272.406000 496305.531000 0.721000 0
154272.969000 496305.281000 -0.224000 0
154272.922000 496305.156000 -0.257000 0
154272.844000 496305.531000 -0.321000 0
154272.172000 496305.125000 0.618000 0
154272.594000 496305.219000 -0.571000 0
154271.734000 496305.063000 -0.344000 0
154272.172000 496306.500000 0.608000 0
154272.313000 496305.719000 0.433000 0
154271.422000 496305.500000 0.655000 0
154272.156000 496306.688000 -0.279000 0
154272.109000 496306.719000 -0.275000 0
154271.609000 496305.625000 -0.715000 0
154272.391000 496306.000000 -0.182000 0
154271.891000 496305.688000 -0.648000 0
154272.000000 496305.563000 0.501000 0
154271.359000 496306.594000 -0.439000 0
154271.844000 496306.188000 0.414000 0
154270.641000 496307.188000 0.481000 0
154271.500000 496305.781000 0.243000 0
154271.500000 496306.063000 0.873000 0
154270.938000 496306.750000 -0.249000 0
154271.438000 496306.281000 -0.064000 0
154271.250000 496305.563000 0.684000 0
154270.188000 496306.781000 0.218000 0
154271.188000 496305.875000 0.499000 0
154271.016000 496306.531000 0.686000 0
154270.719000 496305.906000 0.782000 0
154270.750000 496305.969000 0.777000 0
154270.797000 496306.188000 0.487000 0
154270.047000 496304.875000 -0.185000 0
154270.969000 496305.375000 -0.908000 0
154270.547000 496305.344000 -1.181000 0
154269.656000 496305.125000 -0.096000 0
154270.625000 496305.531000 0.482000 0
154269.828000 496305.188000 -0.002000 0
154270.516000 496305.500000 0.324000 0
154270.172000 496305.156000 -0.214000 0
154270.375000 496306.188000 0.177000 0
154270.125000 496305.188000 -0.244000 0
154270.719000 496306.094000 -0.750000 0
154270.438000 496306.406000 -0.566000 0
154270.766000 496306.063000 -0.698000 0
154270.078000 496305.531000 0.120000 0
154270.453000 496305.719000 -0.517000 0
154270.016000 496305.844000 -0.057000 0
154270.297000 496306.344000 -0.795000 0
154270.375000 496306.000000 -0.736000 0
154269.828000 496305.781000 0.013000 0
154269.031000 496305.125000 -0.780000 0
154268.516000 496305.469000 -1.232000 0
154268.594000 496305.781000 -1.652000 0
154268.391000 496306.469000 -1.630000 0
154268.438000 496306.000000 -2.296000 0
154268.328000 496306.406000 -1.642000 0
154268.484000 496305.781000 -1.654000 0
154268.563000 496305.500000 -1.248000 0
154269.734000 496305.438000 -0.173000 0
154268.969000 496305.406000 -1.379000 0
154269.750000 496305.500000 -0.159000 0
154268.906000 496305.281000 -0.764000 0
154268.891000 496305.719000 -1.418000 0
154269.250000 496305.250000 -0.741000 0
154268.984000 496305.594000 -1.147000 0
154269.953000 496306.063000 -0.771000 0
154269.797000 496305.656000 -1.144000 0
154269.703000 496305.688000 -1.148000 0
154269.328000 496305.563000 -1.114000 0
154269.266000 496305.594000 -1.019000 0
154269.609000 496306.063000 -0.682000 0
154269.125000 496306.094000 -2.161000 0
154269.281000 496306.750000 -2.686000 0
154270.203000 496306.750000 -3.059000 0
154270.938000 496306.719000 -3.489000 0
154271.250000 496306.469000 -2.979000 0
154271.047000 496306.375000 -3.544000 0
154270.969000 496306.688000 -3.425000 0
154270.453000 496306.438000 -3.546000 0
154270.547000 496306.750000 -3.377000 0
154270.547000 496306.781000 -3.258000 0
154270.078000 496306.719000 -3.023000 0
154269.422000 496306.781000 -3.280000 0
154269.688000 496307.156000 -2.730000 0
154269.609000 496306.656000 -2.841000 0
154269.484000 496306.531000 -2.784000 0
154269.531000 496306.344000 -2.548000 0
154269.172000 496305.906000 -0.953000 0
154269.125000 496306.125000 -2.131000 0
154269.516000 496306.438000 -0.546000 0
154269.469000 496306.094000 -2.171000 0
154269.078000 496305.938000 -1.096000 0
154268.734000 496306.375000 -1.901000 0
154269.500000 496306.250000 -0.698000 0
154270.047000 496306.594000 -0.873000 0
154269.109000 496306.219000 -1.095000 0
154269.031000 496306.500000 -1.615000 0
154269.219000 496306.500000 -1.559000 0
154269.797000 496306.719000 -1.068000 0
154269.656000 496306.844000 -1.160000 0
154269.719000 496307.000000 -1.279000 0
154269.734000 496307.125000 -1.451000 0
154270.156000 496306.938000 -1.388000 0
154270.188000 496307.156000 -1.622000 0
154269.656000 496307.281000 -1.506000 0
154269.797000 496307.406000 -1.544000 0
154270.609000 496308.156000 -1.567000 0
154270.531000 496308.500000 -1.699000 0
154269.609000 496308.063000 -2.372000 0
154269.344000 496308.531000 -2.325000 0
154269.234000 496308.281000 -2.080000 0
154269.563000 496307.625000 -1.497000 0
154269.313000 496306.844000 -1.553000 0
154269.375000 496307.000000 -1.462000 0
154268.422000 496308.219000 -1.997000 0
154269.391000 496307.156000 -1.671000 0
154268.828000 496306.750000 -1.399000 0
154268.797000 496308.063000 -1.981000 0
154268.656000 496308.031000 -2.042000 0
154269.297000 496307.313000 -1.669000 0
154268.719000 496307.813000 -1.479000 0
154268.719000 496307.781000 -1.683000 0
154268.797000 496307.469000 -1.617000 0
154268.250000 496306.719000 -1.597000 0
154268.344000 496307.906000 -1.826000 0
154268.906000 496307.031000 -1.859000 0
154268.578000 496306.969000 -1.601000 0
154268.422000 496307.625000 -1.659000 0
154268.563000 496307.125000 -1.620000 0
154268.469000 496306.813000 -1.701000 0
154268.359000 496307.875000 -1.975000 0
154268.891000 496307.094000 -2.089000 0
154268.500000 496307.281000 -1.718000 0
154268.031000 496307.594000 -2.649000 0
154268.234000 496307.500000 -2.424000 0
154268.109000 496307.281000 -2.433000 0
154279.156000 496305.250000 -0.769000 1
154279.734000 496305.969000 -0.424000 1
154280.063000 496306.688000 -0.117000 1
154279.750000 496307.563000 0.108000 1
154280.516000 496308.125000 0.231000 1
154281.125000 496308.719000 0.662000 1
154281.500000 496308.250000 -0.062000 1
154282.344000 496308.438000 0.397000 1
154282.547000 496309.094000 -0.283000 1
154283.234000 496309.531000 -0.795000 1
154282.813000 496309.844000 -1.637000 1
154283.563000 496309.750000 -1.937000 1
154283.703000 496308.906000 -2.171000 1
154282.766000 496308.594000 -2.175000 1
154283.297000 496307.844000 -2.371000 1
154284.156000 496307.750000 -1.896000 1
154284.344000 496308.469000 -1.253000 1
154283.641000 496307.906000 -0.872000 1
154283.500000 496307.000000 -1.246000 1
154282.766000 496306.844000 -1.892000 1
154282.219000 496306.438000 -1.192000 1
154282.938000 496306.031000 -0.665000 1
154283.125000 496305.063000 -0.709000 1
154283.656000 496304.313000 -0.331000 1
154284.438000 496304.625000 -0.868000 1
154285.047000 496305.000000 -0.177000 1
154284.813000 496305.969000 -0.247000 1
154284.141000 496306.250000 -0.896000 1
154284.141000 496305.844000 -1.775000 1
154284.922000 496305.500000 -1.549000 1
154285.766000 496305.094000 -1.223000 1
154286.000000 496305.906000 -1.598000 1
154286.781000 496306.469000 -1.362000 1
154287.000000 496305.625000 -1.638000 1
154287.391000 496304.781000 -1.928000 1
154286.672000 496304.344000 -1.856000 1
154286.484000 496303.906000 -2.063000 1
154286.766000 496304.094000 -1.478000 1
154286.609000 496304.031000 -1.849000 1
154286.406000 496304.281000 -1.923000 1
154287.047000 496304.219000 -1.419000 1
154286.703000 496304.375000 -1.734000 1
154286.641000 496304.656000 -2.004000 1
154286.766000 496304.656000 -1.909000 1
154287.141000 496304.344000 -1.632000 1
154287.125000 496304.500000 -1.697000 1
154287.078000 496304.594000 -1.889000 1
154287.203000 496304.813000 -1.773000 1
154286.547000 496305.000000 -1.909000 1
154286.844000 496304.969000 -1.941000 1
154286.984000 496304.969000 -1.842000 1
154287.281000 496305.125000 -1.927000 1
154286.906000 496305.313000 -1.761000 1
154286.922000 496305.313000 -1.632000 1
154287.094000 496305.969000 -1.498000 1
154287.188000 496306.313000 -1.294000 1
154287.063000 496306.156000 -1.446000 1
154286.813000 496305.688000 -1.201000 1
154286.719000 496306.188000 -1.100000 1
154286.359000 496305.781000 -0.773000 1
154286.500000 496305.219000 0.016000 1
154286.359000 496304.438000 -0.391000 1
154285.719000 496303.969000 -0.170000 1
154285.063000 496303.688000 0.522000 1
154284.250000 496303.938000 0.867000 1
154283.531000 496303.875000 1.382000 1
154282.984000 496303.188000 0.954000 1
154283.703000 496302.938000 0.396000 1
154284.047000 496303.031000 -0.079000 1
154284.266000 496303.500000 -0.401000 1
154283.969000 496303.313000 -0.562000 1
154283.578000 496303.438000 -1.252000 1
154283.906000 496303.750000 -1.585000 1
154283.609000 496302.625000 0.163000 1
154282.578000 496302.781000 0.424000 1
154281.844000 496303.250000 0.140000 1
154282.078000 496304.188000 -0.110000 1
154281.625000 496304.125000 0.707000 1
154281.734000 496304.688000 1.319000 1
154280.875000 496305.156000 1.457000 1
154280.016000 496305.469000 1.600000 1
154280.156000 496306.000000 1.112000 1
154280.953000 496306.313000 0.894000 1
154280.406000 496307.031000 1.247000 1
154281.281000 496307.375000 1.054000 1
154282.156000 496307.719000 1.176000 1
154282.969000 496307.344000 1.282000 1
154282.297000 496306.719000 1.636000 1
154281.828000 496305.844000 1.674000 1
154282.984000 496306.094000 1.555000 1
154283.828000 496305.719000 1.513000 1
154284.219000 496305.031000 1.272000 1
154284.297000 496305.281000 0.445000 1
154284.781000 496306.063000 0.793000 1
154284.984000 496306.938000 0.941000 1
154284.844000 496307.469000 0.113000 1
154284.219000 496308.031000 0.622000 1
154284.078000 496308.938000 0.311000 1
154283.688000 496308.844000 0.126000 1
154284.141000 496309.031000 0.237000 1
154283.766000 496307.406000 0.258000 1
154283.484000 496306.469000 0.339000 1
154283.609000 496306.563000 0.550000 1
154283.984000 496307.125000 1.227000 1
154283.906000 496306.813000 0.900000 1
154283.891000 496306.719000 0.761000 1
154283.188000 496306.875000 -0.035000 1
154283.813000 496308.719000 0.331000 1
154284.609000 496308.500000 0.036000 1
154283.734000 496307.406000 0.330000 1
154284.375000 496308.594000 0.100000 1
154284.063000 496308.688000 0.273000 1
154283.547000 496308.281000 0.742000 1
154283.906000 496308.344000 0.113000 1
154283.969000 496308.375000 0.208000 1
154283.891000 496308.063000 0.250000 1
154283.813000 496307.781000 0.752000 1
154283.984000 496308.031000 0.250000 1
154284.141000 496307.719000 0.806000 1
154284.047000 496307.781000 0.830000 1
154284.063000 496307.375000 0.689000 1
154284.656000 496308.313000 0.534000 1
154285.313000 496307.625000 -0.701000 1
154286.094000 496307.719000 -1.228000 1
154285.969000 496307.344000 -1.735000 1
154286.188000 496308.219000 -2.123000 1
154285.531000 496308.500000 -1.566000 1
154285.734000 496309.250000 -0.940000 1
154285.031000 496309.844000 -0.721000 1
154284.281000 496309.594000 -0.681000 1
154284.594000 496309.469000 -0.868000 1
154284.766000 496309.344000 -0.623000 1
154284.672000 496309.656000 -0.684000 1
154285.031000 496309.750000 -0.611000 1
154284.969000 496309.469000 -0.492000 1
154285.906000 496308.563000 -0.599000 1
154285.109000 496309.531000 -0.974000 1
154285.266000 496308.906000 -0.649000 1
154285.234000 496308.969000 -0.717000 1
154285.406000 496309.625000 -1.098000 1
154285.391000 496309.594000 -0.930000 1
154285.484000 496309.344000 -0.922000 1
154285.313000 496309.281000 -0.998000 1
154285.203000 496309.188000 -1.018000 1
154285.563000 496309.000000 -0.852000 1
154285.641000 496308.906000 -0.803000 1
154285.641000 496308.719000 -0.862000 1
154285.359000 496306.906000 -2.209000 1
154285.156000 496306.281000 -2.412000 1
154284.547000 496305.750000 -2.908000 1
154284.609000 496304.875000 -2.535000 1
154283.953000 496305.188000 -3.340000 1
154284.188000 496304.844000 -3.533000 1
154283.813000 496304.969000 -3.336000 1
154283.875000 496305.469000 -3.334000 1
154284.266000 496305.156000 -3.417000 1
154283.984000 496305.625000 -3.475000 1
154284.188000 496305.656000 -3.512000 1
154285.359000 496306.406000 -2.292000 1
154285.000000 496306.906000 -2.331000 1
154285.109000 496306.813000 -2.324000 1
154286.234000 496306.875000 -2.250000 1
154285.766000 496306.844000 -2.056000 1
154285.531000 496307.094000 -1.931000 1
154285.922000 496307.000000 -2.087000 1
154285.688000 496307.188000 -2.010000 1
154286.422000 496307.625000 -1.367000 1
154286.344000 496307.594000 -1.443000 1
154285.828000 496308.281000 -0.272000 1
154285.781000 496308.125000 -0.243000 1
154285.891000 496307.688000 -1.278000 1
154285.938000 496307.500000 -0.248000 1
154285.594000 496307.563000 -1.392000 1
154285.625000 496307.500000 -1.234000 1
154285.172000 496307.688000 -0.809000 1
154285.156000 496307.000000 -0.605000 1
154284.500000 496307.250000 -0.695000 1
154285.047000 496308.156000 0.599000 1
154285.641000 496307.375000 -0.120000 1
154284.953000 496307.094000 -0.594000 1
154285.578000 496307.313000 -0.009000 1
154284.328000 496307.969000 0.137000 1
154285.234000 496307.406000 -0.443000 1
154284.859000 496307.469000 -0.518000 1
154285.297000 496307.125000 -0.113000 1
154285.250000 496307.375000 -0.308000 1
154284.578000 496307.938000 0.087000 1
154284.781000 496307.813000 -0.085000 1
154284.484000 496307.625000 0.063000 1
154285.375000 496306.813000 0.037000 1
154285.500000 496306.969000 0.137000 1
154284.203000 496307.125000 1.115000 1
154284.422000 496307.344000 0.515000 1
154284.469000 496307.406000 0.799000 1
154284.359000 496307.094000 1.129000 1
154285.188000 496307.563000 0.953000 1
154284.547000 496307.063000 1.000000 1
154284.281000 496306.813000 0.903000 1
154285.109000 496306.844000 0.957000 1
154284.266000 496306.719000 0.995000 1
154284.172000 496306.406000 0.581000 1
154284.625000 496306.750000 0.872000 1
154284.625000 496306.594000 1.149000 1
154285.063000 496306.625000 0.781000 1
154284.359000 496306.500000 0.736000 1
154285.031000 496306.531000 1.077000 1
154284.703000 496306.438000 0.883000 1
154284.953000 496306.219000 1.027000 1
154284.547000 496306.281000 0.776000 1
154285.109000 496305.469000 0.939000 1
154285.547000 496304.688000 0.700000 1
154285.641000 496304.625000 0.830000 1
154285.328000 496304.719000 0.767000 1
154285.031000 496305.156000 1.019000 1
154284.328000 496305.125000 0.535000 1
154284.625000 496304.938000 0.865000 1
154284.000000 496305.000000 1.352000 1
154284.516000 496305.875000 1.420000 1
154284.375000 496305.625000 1.112000 1
154283.516000 496305.250000 1.690000 1
154283.109000 496304.969000 1.811000 1
154284.109000 496306.125000 1.232000 1
154284.031000 496305.875000 1.976000 1
154284.219000 496305.563000 1.675000 1
154284.141000 496305.844000 1.280000 1
154283.953000 496305.500000 1.620000 1
154283.688000 496306.250000 1.000000 1
154282.719000 496305.313000 1.264000 1
154282.703000 496305.000000 0.379000 1
154282.828000 496304.875000 0.471000 1
154282.656000 496305.594000 0.920000 1
154283.188000 496305.313000 1.753000 1
154283.578000 496305.531000 1.462000 1
154282.797000 496305.375000 1.234000 1
154283.734000 496306.156000 1.277000 1
154283.734000 496306.031000 1.807000 1
154282.875000 496305.656000 0.942000 1
154283.656000 496305.813000 1.483000 1
154283.359000 496305.750000 1.133000 1
154283.438000 496306.281000 1.536000 1
154282.953000 496306.000000 1.937000 1
154282.578000 496305.938000 1.233000 1
154283.063000 496306.438000 1.818000 1
154281.656000 496306.563000 2.115000 1
154282.609000 496306.219000 1.253000 1
154281.859000 496306.531000 2.059000 1
154282.484000 496306.250000 1.325000 1
154282.031000 496306.688000 1.414000 1
154282.219000 496306.438000 1.475000 1
154283.203000 496306.438000 1.556000 1
154282.703000 496306.594000 1.813000 1
154282.406000 496306.625000 1.436000 1
154283.672000 496307.781000 0.905000 1
154283.141000 496306.750000 1.932000 1
154283.828000 496307.156000 1.151000 1
154283.109000 496306.813000 1.981000 1
154282.797000 496306.625000 1.754000 1
154283.469000 496308.000000 1.118000 1
154283.688000 496307.250000 1.684000 1
154283.422000 496307.344000 1.966000 1
154283.094000 496308.094000 1.081000 1
154283.594000 496306.906000 1.463000 1
154283.281000 496307.906000 1.067000 1
154282.766000 496306.875000 1.569000 1
154283.297000 496307.313000 0.846000 1
154283.359000 496307.594000 1.001000 1
154282.719000 496306.906000 1.373000 1
154283.375000 496307.656000 1.265000 1
154282.844000 496307.156000 1.058000 1
154282.922000 496307.469000 0.817000 1
154283.000000 496307.781000 1.039000 1
154282.906000 496307.625000 0.814000 1
154282.656000 496307.156000 0.916000 1
154282.453000 496307.344000 1.181000 1
154282.172000 496307.563000 1.062000 1
154281.781000 496307.813000 1.310000 1
154281.891000 496307.250000 0.727000 1
154281.797000 496307.625000 1.250000 1
154281.703000 496307.500000 1.047000 1
154281.359000 496307.781000 1.046000 1
154281.438000 496307.438000 1.047000 1
154280.688000 496306.625000 1.832000 1
154281.109000 496307.250000 1.063000 1
154280.969000 496306.188000 1.837000 1
154280.922000 496306.000000 0.070000 1
154281.719000 496306.313000 -0.262000 1
154281.141000 496307.094000 -0.416000 1
154281.719000 496307.594000 -0.918000 1
154281.125000 496308.281000 -1.123000 1
154280.688000 496308.969000 -0.625000 1
154281.000000 496309.219000 -0.478000 1
154281.344000 496309.469000 -0.007000 1
154280.953000 496309.094000 -0.522000 1
154280.391000 496308.625000 -1.253000 1
154280.156000 496308.063000 -0.992000 1
154280.359000 496308.469000 -1.303000 1
154280.469000 496308.281000 -1.376000 1
154280.859000 496308.719000 -0.796000 1
154280.750000 496308.656000 -0.835000 1
154280.672000 496308.031000 -1.367000 1
154281.500000 496307.156000 -1.580000 1
154282.469000 496307.406000 -1.072000 1
154281.781000 496307.688000 -1.026000 1
154281.219000 496307.156000 -1.130000 1
154281.078000 496307.375000 -0.799000 1
154280.797000 496307.000000 -0.732000 1
154281.016000 496306.094000 -1.063000 1
154281.125000 496305.250000 -1.496000 1
154281.969000 496305.406000 -1.955000 1
154282.641000 496304.719000 -2.194000 1
154283.063000 496305.500000 -2.607000 1
154282.484000 496305.719000 -3.322000 1
154281.797000 496306.000000 -3.232000 1
154281.734000 496306.031000 -2.713000 1
154281.328000 496306.031000 -3.404000 1
154281.391000 496306.125000 -3.487000 1
154281.453000 496305.813000 -3.331000 1
154282.453000 496306.406000 -3.520000 1
154283.188000 496306.875000 -3.196000 1
154283.016000 496307.188000 -3.205000 1
154283.094000 496306.875000 -3.191000 1
154282.781000 496306.688000 -3.410000 1
154282.734000 496306.688000 -3.491000 1
154282.641000 496306.313000 -3.419000 1
154282.094000 496305.938000 -3.154000 1
154282.234000 496305.844000 -3.270000 1
154283.422000 496306.188000 -2.439000 1
154282.859000 496305.563000 -3.219000 1
154283.531000 496305.094000 -2.060000 1
154283.484000 496305.125000 -2.177000 1
154282.219000 496304.250000 -1.573000 1
154281.656000 496305.719000 -2.817000 1
154282.141000 496304.531000 -1.618000 1
154282.703000 496305.000000 -2.334000 1
154282.203000 496304.625000 -1.583000 1
154281.859000 496305.688000 -2.754000 1
154282.031000 496305.688000 -2.434000 1
154281.922000 496305.469000 -1.976000 1
154281.406000 496304.469000 -1.109000 1
154281.125000 496303.656000 -0.663000 1
154280.313000 496304.125000 -0.738000 1
154280.297000 496305.063000 -0.874000 1
154280.250000 496304.375000 -1.437000 1
154279.719000 496304.250000 -0.635000 1
154279.969000 496303.813000 -0.590000 1
154279.984000 496303.781000 -0.738000 1
154279.906000 496304.156000 -0.764000 1
154280.063000 496304.125000 -0.769000 1
154280.406000 496303.969000 -0.698000 1
154281.078000 496304.344000 -0.298000 1
154280.594000 496304.500000 0.247000 1
154280.359000 496303.781000 0.796000 1
154281.094000 496303.563000 1.413000 1
154280.594000 496303.000000 0.790000 1
154280.813000 496303.656000 1.290000 1
154280.188000 496303.156000 0.673000 1
154280.688000 496303.500000 0.364000 1
154280.609000 496303.250000 0.796000 1
154280.109000 496303.281000 0.634000 1
154280.500000 496303.313000 0.660000 1
154280.031000 496303.625000 0.552000 1
154280.266000 496303.438000 0.633000 1
154279.828000 496304.688000 0.656000 1
154280.266000 496304.313000 0.972000 1
154280.453000 496304.156000 0.781000 1
154281.281000 496304.250000 -1.159000 1
154281.984000 496305.219000 -1.389000 1
154281.547000 496305.281000 -0.504000 1
154281.922000 496305.281000 -0.545000 1
154281.359000 496304.563000 -1.159000 1
154280.406000 496305.281000 -1.174000 1
154281.016000 496304.563000 -1.214000 1
154280.984000 496304.656000 -1.221000 1
154281.344000 496304.750000 -1.279000 1
154281.438000 496304.875000 -1.415000 1
154281.516000 496305.156000 -1.686000 1
154280.328000 496305.594000 -1.167000 1
154281.219000 496305.563000 -1.581000 1
154281.547000 496305.469000 -0.540000 1
154281.141000 496306.875000 -0.667000 1
154282.000000 496305.563000 -0.667000 1
154281.891000 496305.594000 -0.637000 1
154281.469000 496305.781000 -0.633000 1
154280.766000 496305.563000 -0.681000 1
154281.344000 496306.063000 -0.182000 1
154281.250000 496305.719000 -0.083000 1
154281.531000 496306.844000 1.190000 1
154281.750000 496306.125000 1.034000 1
154281.188000 496307.063000 1.163000 1
154281.328000 496306.344000 1.589000 1
154281.422000 496306.000000 1.336000 1
154281.375000 496306.250000 1.447000 1
154280.797000 496306.938000 1.114000 1
154281.188000 496306.906000 0.761000 1
154281.438000 496306.469000 0.569000 1
154280.750000 496306.844000 1.089000 1
154281.109000 496306.719000 0.802000 1
154281.047000 496306.469000 1.247000 1
154280.484000 496306.750000 1.362000 1
154280.656000 496306.000000 0.524000 1
154280.094000 496306.531000 1.260000 1
154280.250000 496306.344000 0.865000 1
154280.266000 496305.844000 1.031000 1
154279.953000 496305.594000 0.913000 1
154280.516000 496305.906000 1.055000 1
154281.500000 496305.656000 1.029000 1
154281.031000 496306.031000 1.484000 1
154280.813000 496305.406000 0.642000 1
154280.719000 496305.750000 0.959000 1
154280.422000 496305.563000 0.982000 1
154280.781000 496305.438000 0.847000 1
154280.422000 496305.188000 1.000000 1
154280.859000 496305.781000 1.308000 1
154280.344000 496305.250000 1.124000 1
154280.688000 496305.094000 0.947000 1
154282.563000 496304.469000 1.663000 1
154282.359000 496305.250000 1.238000 1
154281.047000 496304.969000 1.647000 1
154282.219000 496304.250000 1.721000 1
154281.578000 496305.344000 1.593000 1
154281.813000 496304.875000 1.972000 1
154281.891000 496305.188000 1.691000 1
154282.266000 496304.906000 1.129000 1
154282.000000 496305.188000 1.344000 1
154281.688000 496304.906000 0.547000 1
154280.859000 496304.250000 0.755000 1
154281.406000 496304.781000 0.827000 1
154281.828000 496304.344000 1.324000 1
154281.344000 496304.500000 1.166000 1
154281.359000 496304.688000 0.774000 1
154281.594000 496303.719000 1.168000 1
154281.547000 496303.813000 1.148000 1
154281.250000 496304.125000 0.758000 1
154281.438000 496304.344000 0.686000 1
154281.516000 496304.031000 0.873000 1
154281.781000 496304.719000 0.510000 1
154282.047000 496304.969000 -0.467000 1
154282.469000 496304.063000 0.586000 1
154281.859000 496304.188000 -0.129000 1
154281.984000 496303.688000 0.973000 1
154281.047000 496303.375000 -0.349000 1
154281.281000 496302.813000 0.737000 1
154281.609000 496302.313000 0.566000 1
154281.531000 496302.500000 0.585000 1
154282.266000 496304.063000 0.083000 1
154281.375000 496303.156000 0.865000 1
154281.453000 496302.813000 0.766000 1
154282.016000 496303.906000 0.246000 1
154281.938000 496303.906000 0.232000 1
154281.438000 496303.406000 0.525000 1
154281.625000 496303.594000 -0.026000 1
154281.703000 496303.313000 0.131000 1
154281.688000 496302.625000 0.444000 1
154282.063000 496302.500000 0.835000 1
154282.172000 496302.906000 0.126000 1
154282.125000 496302.750000 0.313000 1
154282.250000 496302.625000 0.319000 1
154282.578000 496302.938000 0.586000 1
154283.266000 496302.813000 0.579000 1
154282.891000 496302.844000 0.609000 1
154282.844000 496303.344000 0.728000 1
154282.922000 496303.031000 0.792000 1
154282.844000 496303.938000 0.757000 1
154283.000000 496304.594000 1.198000 1
154282.766000 496303.656000 1.549000 1
154283.188000 496303.406000 1.331000 1
154283.047000 496304.000000 1.273000 1
154284.078000 496304.656000 1.149000 1
154284.531000 496304.594000 0.729000 1
154284.469000 496304.531000 0.751000 1
154284.047000 496304.375000 1.028000 1
154283.891000 496303.688000 1.054000 1
154284.453000 496304.281000 0.507000 1
154284.422000 496303.281000 0.309000 1
154285.250000 496304.406000 0.752000 1
154284.531000 496303.188000 0.326000 1
154284.609000 496303.469000 0.127000 1
154284.969000 496303.344000 0.047000 1
154284.656000 496303.781000 0.365000 1
154284.688000 496303.813000 0.399000 1
154285.031000 496303.813000 0.423000 1
154285.375000 496303.594000 0.497000 1
154285.266000 496304.094000 0.303000 1
154285.141000 496304.000000 0.129000 1
154285.359000 496303.750000 0.213000 1
154285.453000 496303.906000 0.101000 1
154285.906000 496304.125000 -0.078000 1
154286.031000 496304.156000 -0.794000 1
154286.234000 496304.313000 -0.649000 1
154285.875000 496305.531000 0.089000 1
154286.156000 496305.156000 0.619000 1
154286.328000 496304.688000 0.136000 1
154286.266000 496304.781000 0.032000 1
154286.500000 496305.375000 0.049000 1
154286.406000 496304.969000 -0.442000 1
154285.875000 496306.375000 -0.573000 1
154286.578000 496306.594000 -1.476000 1
154286.656000 496306.313000 -1.201000 1
154286.125000 496306.688000 -1.322000 1
154285.781000 496306.469000 -1.045000 1
154286.375000 496305.969000 -0.882000 1
154286.734000 496305.969000 -1.575000 1
154286.609000 496305.781000 -1.674000 1
154286.438000 496306.250000 -1.338000 1
154286.203000 496306.375000 -1.615000 1
154286.281000 496305.625000 -0.731000 1
154286.047000 496304.688000 -0.518000 1
154286.047000 496305.688000 -0.735000 1
154285.109000 496304.781000 -2.202000 1
154285.438000 496305.156000 -1.129000 1
154283.453000 496305.406000 -2.013000 1
154283.984000 496305.031000 -1.691000 1
154283.859000 496305.125000 -1.895000 1
154283.859000 496305.563000 -2.442000 1
154283.563000 496305.438000 -1.931000 1
154283.906000 496305.375000 -1.513000 1
154284.594000 496305.563000 -1.550000 1
154283.953000 496305.469000 -1.576000 1
154284.219000 496305.563000 -1.301000 1
154284.406000 496305.719000 -1.412000 1
154284.750000 496306.219000 -1.269000 1
154284.578000 496306.375000 -1.101000 1
154284.250000 496305.438000 0.334000 1
154285.719000 496306.219000 -0.269000 1
154283.984000 496305.625000 -0.242000 1
154285.625000 496305.875000 -0.270000 1
154285.531000 496306.156000 -0.195000 1
154285.109000 496306.469000 -0.646000 1
154284.906000 496306.063000 -0.384000 1
154285.609000 496304.469000 -0.778000 1
154285.188000 496304.438000 0.611000 1
154285.578000 496304.531000 -0.788000 1
154285.641000 496304.281000 -0.181000 1
154285.531000 496304.219000 -0.215000 1
154284.953000 496304.125000 0.070000 1
154285.859000 496304.844000 -0.476000 1
154284.563000 496305.688000 -0.403000 1
154285.688000 496305.563000 -0.044000 1
154285.766000 496305.250000 0.179000 1
154285.531000 496305.500000 -0.638000 1
154284.844000 496305.781000 -0.131000 1
154285.344000 496305.469000 -0.723000 1
154285.109000 496304.750000 0.409000 1
154285.078000 496305.344000 -0.459000 1
154285.391000 496304.938000 0.069000 1
154284.313000 496305.344000 -1.539000 1
154284.297000 496305.219000 -1.527000 1
154284.063000 496304.406000 -1.635000 1
154285.000000 496305.000000 -0.373000 1
154284.078000 496304.656000 -1.619000 1
154284.844000 496304.406000 -0.200000 1
154284.734000 496305.375000 -0.847000 1
154284.656000 496305.313000 -0.958000 1
154284.219000 496304.063000 -1.165000 1
154284.156000 496304.750000 -1.435000 1
154284.406000 496304.094000 -1.089000 1
154284.891000 496304.375000 -0.622000 1
154284.656000 496305.031000 -1.136000 1
154284.734000 496305.000000 -0.799000 1
154284.578000 496304.750000 -0.767000 1
154284.500000 496304.406000 -0.854000 1
154283.234000 496304.125000 0.530000 1
154284.516000 496304.375000 -0.773000 1
154283.500000 496303.750000 -1.095000 1
154284.328000 496303.781000 -0.746000 1
154284.297000 496303.750000 -0.731000 1
154283.859000 496303.563000 -0.032000 1
154283.875000 496303.688000 -0.096000 1
154282.750000 496305.188000 0.149000 1
154282.563000 496304.563000 -0.152000 1
154282.391000 496305.219000 -0.182000 1
154283.469000 496305.313000 0.043000 1
154283.531000 496305.344000 -0.092000 1
154283.328000 496304.438000 -0.939000 1
154283.250000 496304.750000 -0.615000 1
154282.375000 496305.313000 -0.992000 1
154282.766000 496305.219000 -0.237000 1
154283.406000 496306.156000 0.107000 1
154283.359000 496305.781000 -1.383000 1
154282.813000 496305.438000 -1.285000 1
154283.156000 496306.594000 -0.091000 1
154283.094000 496305.375000 -1.140000 1
154282.688000 496305.469000 -0.240000 1
154283.000000 496305.750000 -0.284000 1
154283.000000 496306.156000 -0.632000 1
154281.875000 496307.344000 -1.318000 1
154282.641000 496305.625000 -1.515000 1
154281.672000 496306.469000 -1.951000 1
154281.844000 496306.406000 -2.002000 1
154281.563000 496306.938000 -1.314000 1
154281.594000 496306.844000 -1.474000 1
154282.266000 496305.719000 -1.392000 1
154282.641000 496306.313000 -0.736000 1
154282.547000 496305.969000 -1.115000 1
154282.547000 496306.000000 -1.141000 1
154282.188000 496306.031000 -1.470000 1
154282.391000 496306.688000 -0.868000 1
154282.094000 496306.406000 -1.257000 1
154282.125000 496306.313000 -2.263000 1
154282.391000 496307.094000 -1.104000 1
154282.313000 496307.000000 -1.135000 1
154281.922000 496306.750000 -1.992000 1
154281.969000 496306.969000 -1.921000 1
154282.313000 496306.781000 -1.246000 1
154282.047000 496306.625000 -1.965000 1
154282.672000 496306.438000 -2.352000 1
154282.859000 496306.344000 -0.892000 1
154284.391000 496307.188000 -0.955000 1
154282.734000 496306.875000 -1.792000 1
154282.703000 496306.563000 -1.259000 1
154283.078000 496306.438000 -0.750000 1
154282.797000 496306.625000 -1.332000 1
154283.063000 496307.031000 -1.828000 1
154283.891000 496306.875000 -1.364000 1
154283.234000 496307.063000 -1.358000 1
154283.609000 496306.969000 -1.159000 1
154283.141000 496308.281000 -0.509000 1
154283.172000 496308.375000 -0.671000 1
154283.250000 496308.031000 -0.387000 1
154283.547000 496308.313000 -0.421000 1
154283.328000 496307.438000 -0.951000 1
154283.422000 496307.781000 -0.649000 1
154284.203000 496309.281000 -0.784000 1
154283.484000 496308.563000 -1.063000 1
154285.141000 496308.594000 -0.890000 1
154284.469000 496309.031000 -0.825000 1
154285.016000 496308.313000 -1.091000 1
154284.516000 496309.125000 -1.138000 1
154284.625000 496309.844000 -1.822000 1
154284.563000 496308.719000 -0.971000 1
154284.422000 496308.813000 -1.102000 1
154284.688000 496308.406000 -1.251000 1
154284.641000 496308.344000 -1.399000 1
154284.438000 496307.500000 -1.487000 1
154284.438000 496307.438000 -1.655000 1
154284.297000 496308.094000 -1.727000 1
154284.078000 496307.438000 -1.693000 1
154284.250000 496308.094000 -1.885000 1
154284.375000 496307.781000 -1.685000 1
154284.125000 496307.500000 -1.794000 1
154284.047000 496307.813000 -1.791000 1
154283.281000 496307.219000 -2.911000 1
154283.750000 496307.438000 -2.117000 1
154283.844000 496307.813000 -2.115000 1
154283.750000 496307.469000 -2.337000 1
154283.672000 496307.750000 -2.226000 1
154283.375000 496307.500000 -2.565000 1
154283.000000 496307.719000 -2.604000 1
154283.375000 496307.594000 -2.407000 1
154282.422000 496308.688000 -1.431000 1
154283.094000 496308.094000 -2.242000 1
154282.672000 496308.594000 -2.204000 1
154283.469000 496308.000000 -2.085000 1
154284.125000 496308.781000 -1.392000 1
154283.203000 496308.188000 -2.324000 1
154283.953000 496308.125000 -1.860000 1
154283.188000 496308.469000 -1.614000 1
154283.922000 496308.156000 -1.964000 1
154284.000000 496308.500000 -1.719000 1
154283.875000 496308.500000 -1.704000 1
154283.438000 496308.719000 -2.291000 1
154283.625000 496308.594000 -2.211000 1
154284.344000 496309.813000 -1.605000 1
154284.266000 496309.906000 -1.538000 1
154284.250000 496309.438000 -1.982000 1
154283.813000 496310.031000 -2.137000 1
154283.516000 496309.750000 -1.894000 1
154282.578000 496309.344000 -1.544000 1
154283.031000 496309.594000 -1.861000 1
154283.109000 496310.063000 -1.685000 1
154284.031000 496309.188000 -0.583000 1
154283.031000 496308.906000 -1.264000 1
154283.938000 496309.531000 -0.718000 1
154283.406000 496308.875000 -0.806000 1
154283.547000 496309.875000 -0.696000 1
154283.469000 496309.563000 -0.765000 1
154282.953000 496309.250000 -1.070000 1
154281.734000 496309.344000 -0.121000 1
154283.219000 496308.594000 -0.336000 1
154281.828000 496309.500000 -0.293000 1
154283.313000 496309.250000 -0.478000 1
154283.297000 496308.938000 -0.518000 1
154282.859000 496309.594000 -0.821000 1
154282.141000 496309.250000 -0.952000 1
154283.078000 496308.688000 -0.400000 1
154282.969000 496309.375000 -0.682000 1
154283.000000 496309.031000 -0.144000 1
154282.156000 496309.281000 -0.166000 1
154282.531000 496309.156000 -0.155000 1
154282.828000 496307.938000 0.974000 1
154282.500000 496307.563000 0.448000 1
154282.203000 496309.000000 -0.219000 1
154282.656000 496308.156000 -0.295000 1
154282.688000 496308.281000 1.039000 1
154282.766000 496308.219000 0.567000 1
154282.422000 496308.094000 0.705000 1
154282.266000 496308.750000 0.430000 1
154282.391000 496308.563000 0.403000 1
154281.438000 496309.094000 -0.513000 1
154282.078000 496308.969000 -0.157000 1
154281.828000 496308.969000 -0.471000 1
154282.297000 496308.250000 -0.041000 1
154281.656000 496308.844000 -0.531000 1
154281.734000 496307.875000 0.520000 1
154281.563000 496308.500000 -0.696000 1
154281.984000 496308.625000 -0.229000 1
154281.891000 496308.688000 -0.241000 1
154281.391000 496307.656000 -0.067000 1
154281.844000 496308.031000 -0.062000 1
154281.688000 496308.094000 -0.346000 1
154281.578000 496308.500000 0.227000 1
154281.594000 496308.625000 0.428000 1
154281.406000 496307.906000 0.003000 1
154281.031000 496307.531000 0.710000 1
154281.172000 496308.469000 0.716000 1
154281.313000 496307.938000 0.022000 1
154280.906000 496307.469000 0.426000 1
154280.297000 496308.219000 -0.484000 1
154281.219000 496308.344000 0.379000 1
154280.047000 496308.531000 -0.103000 1
154281.063000 496308.063000 -0.039000 1
154280.328000 496308.344000 0.750000 1
154280.953000 496307.844000 0.401000 1
154280.797000 496308.500000 0.011000 1
154280.391000 496308.594000 0.059000 1
154280.906000 496308.063000 -0.094000 1
154280.813000 496308.438000 0.061000 1
154280.438000 496308.438000 0.302000 1
154280.656000 496307.531000 0.328000 1
154280.594000 496307.813000 0.017000 1
154280.547000 496307.563000 0.320000 1
154280.234000 496307.938000 0.172000 1
154280.281000 496307.594000 0.268000 1
154280.203000 496307.875000 0.126000 1
154280.156000 496307.656000 0.437000 1
154279.484000 496307.438000 -0.057000 1
154280.844000 496306.781000 -0.493000 1
154279.891000 496307.344000 -0.207000 1
154279.656000 496307.219000 -0.074000 1
154279.578000 496307.094000 -0.311000 1
154280.063000 496307.313000 0.042000 1
154279.984000 496306.969000 -0.661000 1
154280.453000 496306.844000 -0.452000 1
154280.516000 496306.594000 0.049000 1
154280.375000 496306.813000 -0.422000 1
154279.969000 496306.938000 -0.173000 1
154279.656000 496306.781000 -0.435000 1
154279.719000 496306.500000 -0.035000 1
154279.891000 496306.594000 -0.521000 1
154279.406000 496306.219000 -0.780000 1
154279.813000 496306.156000 -0.018000 1
154280.016000 496305.469000 -1.030000 1
154280.063000 496305.094000 -0.691000 1
154280.000000 496305.406000 -1.013000 1
154279.438000 496306.063000 -0.651000 1
154279.875000 496304.875000 -0.611000 1
154279.406000 496304.719000 -0.288000 1
154279.078000 496305.938000 -1.060000 1
154279.297000 496305.844000 -1.063000 1
154279.516000 496305.719000 -0.840000 1
154279.641000 496305.594000 -0.759000 1
154279.500000 496305.063000 -0.332000 1
154279.656000 496305.125000 -0.565000 1
154279.313000 496305.031000 -0.298000 1
154279.563000 496305.313000 -0.714000 1
154279.156000 496305.625000 -0.914000 1
154279.234000 496305.563000 -0.728000 1
154279.234000 496305.313000 -0.811000 1
154290.563000 496342.156000 -1.767000 2
154291.234000 496341.469000 -1.532000 2
154292.031000 496341.031000 -1.594000 2
154291.688000 496340.156000 -1.829000 2
154291.594000 496339.750000 -2.356000 2
154290.969000 496339.438000 -2.262000 2
154291.656000 496339.750000 -2.225000 2
154291.563000 496340.094000 -1.869000 2
154291.734000 496340.875000 -2.220000 2
154292.219000 496340.594000 -1.906000 2
154292.234000 496341.500000 -1.661000 2
154292.297000 496340.938000 -1.723000 2
154291.641000 496341.531000 -2.325000 2
154291.000000 496340.750000 -1.901000 2
154292.031000 496341.469000 -1.570000 2
154291.469000 496340.906000 -1.981000 2
154291.328000 496341.094000 -1.775000 2
154291.563000 496341.250000 -1.632000 2
154291.047000 496342.469000 -1.237000 2
154290.813000 496343.188000 -1.406000 2
154290.656000 496342.469000 -1.264000 2
154290.250000 496342.344000 -1.319000 2
154291.016000 496342.406000 -1.643000 2
154290.641000 496342.500000 -1.806000 2
154289.031000 496294.281000 -1.618000 3
154289.922000 496294.563000 -1.924000 3
154290.750000 496294.969000 -2.028000 3
154291.375000 496294.281000 -1.719000 3
154292.188000 496294.656000 -2.149000 3
154291.625000 496295.469000 -2.040000 3
154292.359000 496295.375000 -1.372000 3
154292.125000 496294.469000 -1.050000 3
154292.469000 496294.406000 -0.277000 3
154292.516000 496295.219000 0.215000 3
154292.281000 496295.063000 1.168000 3
154292.141000 496294.500000 1.956000 3
154291.516000 496294.344000 1.792000 3
154291.188000 496295.219000 1.664000 3
154291.547000 496295.813000 1.108000 3
154291.219000 496295.375000 0.302000 3
154290.656000 496294.625000 0.439000 3
154289.875000 496294.719000 0.797000 3
154289.406000 496295.125000 0.016000 3
154289.641000 496295.656000 0.497000 3
154290.313000 496296.125000 0.275000 3
154290.672000 496296.219000 0.699000 3
154290.688000 496296.313000 0.123000 3
154291.234000 496297.063000 0.392000 3
154291.109000 496297.594000 -0.419000 3
154291.875000 496297.938000 0.117000 3
154292.656000 496298.125000 0.705000 3
154292.797000 496297.563000 1.497000 3
154293.719000 496297.313000 1.238000 3
154294.484000 496297.688000 1.700000 3
154294.531000 496297.906000 0.770000 3
154295.438000 496298.313000 0.825000 3
154295.953000 496297.469000 0.676000 3
154296.797000 496297.469000 0.486000 3
154297.500000 496297.406000 -0.154000 3
154297.453000 496296.656000 0.426000 3
154297.688000 496295.688000 0.502000 3
154297.922000 496294.719000 0.482000 3
154297.172000 496294.281000 0.107000 3
154297.156000 496294.625000 -0.783000 3
154297.391000 496295.563000 -0.826000 3
154298.031000 496296.188000 -0.389000 3
154298.469000 496295.688000 -1.037000 3
154299.109000 496295.125000 -1.454000 3
154298.391000 496294.500000 -1.156000 3
154298.422000 496294.469000 -1.155000 3
154298.703000 496294.188000 -2.061000 3
154298.672000 496294.844000 -2.779000 3
154297.953000 496294.563000 -2.623000 3
154297.156000 496294.375000 -2.102000 3
154296.438000 496294.344000 -2.068000 3
154296.000000 496294.313000 -1.757000 3
154295.172000 496294.531000 -1.448000 3
154295.031000 496295.438000 -1.806000 3
154294.375000 496296.156000 -1.766000 3
154294.563000 496296.531000 -0.912000 3
154295.234000 496296.281000 -0.223000 3
154294.516000 496296.375000 0.404000 3
154294.031000 496295.969000 1.159000 3
154293.125000 496296.219000 0.894000 3
154292.594000 496296.500000 0.538000 3
154292.563000 496296.188000 -0.350000 3
154291.813000 496296.031000 -0.827000 3
154291.609000 496296.844000 -1.271000 3
154292.453000 496297.250000 -1.470000 3
154293.141000 496297.750000 -1.672000 3
154293.563000 496296.906000 -1.902000 3
154294.141000 496297.125000 -1.632000 3
154294.484000 496297.688000 -1.050000 3
154294.484000 496297.281000 -0.142000 3
154293.609000 496297.094000 -0.378000 3
154293.219000 496297.281000 -0.509000 3
154293.797000 496297.813000 0.054000 3
154293.672000 496297.438000 -0.318000 3
154295.313000 496297.313000 -0.219000 3
154295.406000 496298.125000 -0.784000 3
154296.172000 496298.375000 -1.375000 3
154296.922000 496297.906000 -1.380000 3
154297.281000 496298.156000 -1.961000 3
154296.953000 496298.688000 -1.548000 3
154296.750000 496297.875000 -1.471000 3
154296.625000 496298.688000 -1.574000 3
154296.672000 496298.156000 -1.432000 3
154296.594000 496298.500000 -1.496000 3
154296.250000 496298.031000 -1.660000 3
154295.359000 496298.000000 -2.028000 3
154294.625000 496298.250000 -2.049000 3
154294.625000 496298.219000 -1.970000 3
154296.547000 496298.406000 -1.255000 3
154294.922000 496298.875000 -0.422000 3
154295.141000 496299.656000 -0.918000 3
154295.469000 496300.063000 -1.713000 3
154295.703000 496299.344000 -1.242000 3
154295.984000 496299.156000 -0.706000 3
154295.609000 496299.313000 -1.138000 3
154295.406000 496299.813000 -1.023000 3
154294.984000 496299.625000 -0.998000 3
154294.094000 496299.000000 -0.754000 3
154293.688000 496299.000000 -0.055000 3
154292.891000 496299.000000 -0.609000 3
154292.203000 496299.219000 -0.033000 3
154291.969000 496299.031000 -0.222000 3
154292.109000 496298.875000 -0.183000 3
154292.250000 496299.375000 -1.050000 3
154291.688000 496298.625000 -1.246000 3
154291.938000 496298.156000 -0.960000 3
154291.672000 496298.656000 -1.206000 3
154292.328000 496299.500000 -1.274000 3
154292.391000 496299.188000 -1.107000 3
154292.469000 496298.906000 -0.960000 3
154292.547000 496298.875000 -0.902000 3
154292.641000 496299.219000 -0.870000 3
154292.797000 496298.625000 -0.746000 3
154292.813000 496299.125000 -0.816000 3
154292.875000 496298.844000 -0.707000 3
154294.078000 496298.969000 0.559000 3
154293.734000 496298.781000 1.015000 3
154293.469000 496298.313000 1.560000 3
154294.063000 496298.844000 0.926000 3
154293.250000 496298.844000 0.300000 3
