152798.063000 497897.094000 -1.042000 2
152796.797000 497910.750000 -0.835000 3
152797.391000 497910.125000 -0.786000 3
152797.609000 497910.750000 -1.471000 3
152797.984000 497910.906000 -2.260000 3
152798.469000 497910.313000 -2.877000 3
152798.781000 497911.125000 -3.343000 3
152799.094000 497911.563000 -2.705000 3
152799.188000 497911.156000 -1.855000 3
152799.438000 497911.844000 -1.609000 3
152800.188000 497912.094000 -1.669000 3
152800.344000 497911.438000 -1.296000 3
152800.859000 497910.938000 -1.606000 3
152801.719000 497910.656000 -1.242000 3
152801.484000 497910.125000 -1.298000 3
152800.766000 497909.656000 -0.973000 3
152800.047000 497909.250000 -1.122000 3
152799.156000 497909.531000 -0.827000 3
152799.156000 497909.531000 -1.701000 3
152799.453000 497910.063000 -2.452000 3
152799.813000 497910.281000 -2.377000 3
152798.344000 497909.406000 -2.037000 3
152798.000000 497909.125000 -1.456000 3
152797.250000 497908.875000 -1.376000 3
152797.734000 497908.688000 -1.108000 3
152798.063000 497908.875000 -1.072000 3
152797.922000 497909.469000 -1.555000 3
152797.922000 497909.500000 -2.343000 3
152798.359000 497909.344000 -1.416000 3
152798.688000 497909.438000 -2.221000 3
152799.094000 497909.781000 -1.924000 3
152798.781000 497909.063000 -1.349000 3
152799.375000 497908.625000 -0.956000 3
152799.578000 497909.563000 -1.734000 3
152799.875000 497910.000000 -1.271000 3
152799.781000 497908.656000 -1.160000 3
152799.641000 497909.250000 -1.582000 3
152800.016000 497909.438000 -1.662000 3
152799.719000 497908.938000 -1.408000 3
152800.453000 497909.000000 -0.814000 3
152800.281000 497909.688000 -1.143000 3
152800.359000 497909.406000 -0.872000 3
152800.719000 497909.875000 -1.303000 3
152800.781000 497911.281000 -2.495000 3
152801.438000 497910.344000 -1.713000 3
152801.047000 497910.188000 -1.485000 3
152800.641000 497910.250000 -1.342000 3
152800.859000 497910.969000 -2.319000 3
152801.297000 497910.938000 -2.161000 3
152801.359000 497910.656000 -1.898000 3
152800.953000 497910.563000 -1.605000 3
152800.328000 497911.531000 -2.016000 3
152799.328000 497912.281000 -1.554000 3
152799.203000 497912.781000 -2.246000 3
152799.734000 497912.000000 -1.401000 3
152799.609000 497911.094000 -2.292000 3
152798.563000 497912.031000 -2.312000 3
152797.672000 497912.188000 -2.089000 3
152796.813000 497912.531000 -2.453000 3
152797.156000 497912.656000 -3.333000 3
152797.375000 497913.438000 -2.871000 3
152797.563000 497914.094000 -3.345000 3
152797.641000 497913.781000 -3.177000 3
152797.313000 497913.688000 -3.245000 3
152797.688000 497913.594000 -2.712000 3
152796.828000 497912.500000 -3.398000 3
152797.469000 497913.031000 -2.890000 3
152797.484000 497912.969000 -2.200000 3
152797.750000 497911.906000 -1.921000 3
152798.000000 497912.313000 -2.037000 3
152798.969000 497912.094000 -2.368000 3
152799.141000 497911.406000 -2.270000 3
152799.016000 497910.094000 -2.131000 3
152798.266000 497909.719000 -2.187000 3
152799.328000 497910.594000 -2.972000 3
152798.875000 497910.719000 -3.355000 3
152798.641000 497909.656000 -2.592000 3
152798.969000 497910.313000 -2.512000 3
152798.219000 497909.938000 -2.566000 3
152798.922000 497910.531000 -2.854000 3
152798.563000 497909.938000 -2.825000 3
152798.109000 497911.844000 -2.202000 3
152798.141000 497910.250000 -2.757000 3
152798.375000 497910.719000 -2.838000 3
152797.609000 497910.781000 -2.210000 3
152798.125000 497910.313000 -0.990000 3
152797.531000 497909.563000 -1.103000 3
152797.688000 497910.406000 -1.288000 3
152797.188000 497911.000000 -1.445000 3
152797.266000 497910.656000 -1.377000 3
152796.922000 497910.188000 -1.062000 3
152799.219000 497919.563000 -1.028000 4
152800.063000 497919.469000 -1.436000 4
152800.234000 497920.406000 -1.379000 4
152800.906000 497920.875000 -0.868000 4
152801.609000 497921.563000 -0.877000 4
152802.125000 497921.031000 -0.819000 4
152802.547000 497920.719000 0.022000 4
152803.078000 497920.438000 -0.696000 4
152803.594000 497919.906000 -1.207000 4
152803.766000 497920.875000 -1.336000 4
152803.891000 497921.813000 -1.444000 4
152804.141000 497922.719000 -1.348000 4
152804.984000 497922.531000 -1.379000 4
152804.891000 497922.938000 -0.512000 4
152804.297000 497923.563000 -0.549000 4
152804.094000 497924.438000 -0.441000 4
152803.219000 497924.594000 -0.770000 4
152802.828000 497924.750000 -1.658000 4
152802.391000 497924.844000 -2.533000 4
152802.984000 497924.125000 -2.880000 4
152803.375000 497923.938000 -2.114000 4
152802.797000 497923.188000 -1.859000 4
152802.609000 497922.375000 -1.518000 4
152801.750000 497922.563000 -1.871000 4
152801.031000 497922.313000 -2.486000 4
152800.609000 497922.125000 -1.666000 4
152800.672000 497921.844000 -1.395000 4
152801.156000 497921.813000 -1.813000 4
152801.047000 497922.250000 -1.747000 4
152801.313000 497922.813000 -1.651000 4
152801.734000 497922.656000 -2.406000 4
152801.438000 497922.281000 -1.892000 4
152801.844000 497922.156000 -1.854000 4
152802.063000 497922.719000 -1.672000 4
152802.031000 497922.875000 -2.116000 4
152802.516000 497922.781000 -1.580000 4
152802.891000 497922.813000 -1.814000 4
152802.734000 497923.406000 -2.193000 4
152803.234000 497924.531000 -3.368000 4
152804.156000 497924.188000 -3.371000 4
152804.781000 497924.844000 -3.169000 4
152804.609000 497925.531000 -2.508000 4
152804.156000 497926.000000 -2.637000 4
152803.953000 497926.844000 -2.436000 4
152804.766000 497927.000000 -2.948000 4
152805.344000 497926.313000 -2.651000 4
152805.438000 497925.906000 -1.884000 4
152805.422000 497925.969000 -0.919000 4
152806.188000 497926.188000 -0.342000 4
152805.625000 497926.938000 -0.271000 4
152805.984000 497927.031000 -1.147000 4
152806.938000 497926.750000 -1.134000 4
152807.578000 497926.000000 -0.972000 4
152806.844000 497925.500000 -1.112000 4
152806.063000 497925.156000 -0.596000 4
152807.125000 497925.938000 -1.914000 4
152806.609000 497926.469000 -2.397000 4
152806.828000 497927.188000 -2.751000 4
152807.609000 497927.500000 -2.237000 4
152808.563000 497927.219000 -2.265000 4
152808.641000 497926.875000 -1.370000 4
152808.703000 497926.625000 -1.036000 4
152808.313000 497926.656000 -1.307000 4
152808.547000 497927.250000 -1.334000 4
152808.234000 497926.969000 -1.514000 4
152808.266000 497926.844000 -2.512000 4
152808.484000 497927.563000 -2.422000 4
152807.500000 497927.969000 -2.873000 4
152808.125000 497927.438000 -2.115000 4
152808.047000 497927.750000 -2.360000 4
152807.656000 497927.281000 -1.847000 4
152807.516000 497927.875000 -2.257000 4
152806.609000 497928.125000 -2.342000 4
152806.188000 497928.219000 -2.998000 4
152805.422000 497927.844000 -3.289000 4
152804.516000 497928.063000 -3.315000 4
152804.016000 497928.031000 -3.282000 4
152804.422000 497928.438000 -3.363000 4
152804.844000 497928.438000 -3.274000 4
152805.844000 497927.656000 -3.112000 4
152806.250000 497927.969000 -2.612000 4
152807.078000 497928.094000 -2.495000 4
152805.906000 497927.375000 -2.860000 4
152807.141000 497927.844000 -2.218000 4
152806.688000 497927.781000 -2.292000 4
152807.281000 497927.219000 -2.609000 4
152806.438000 497927.156000 -2.609000 4
152806.484000 497924.938000 -0.428000 4
152806.453000 497925.125000 -0.879000 4
152806.406000 497925.281000 -1.336000 4
152806.906000 497925.188000 -0.889000 4
152808.391000 497926.313000 -1.149000 4
152807.188000 497925.719000 -0.699000 4
152807.625000 497925.813000 -0.589000 4
152806.641000 497926.313000 -1.916000 4
152807.844000 497926.500000 -1.068000 4
152806.750000 497925.875000 -1.119000 4
152807.328000 497927.094000 -0.407000 4
152807.531000 497927.813000 -0.762000 4
152807.156000 497927.750000 -0.668000 4
152807.219000 497927.531000 -0.339000 4
152806.844000 497927.156000 -1.886000 4
152807.141000 497925.938000 -1.108000 4
152807.500000 497926.344000 -1.096000 4
152806.672000 497926.188000 -1.339000 4
152806.813000 497927.250000 -0.873000 4
152805.875000 497927.531000 -1.809000 4
152804.969000 497927.906000 -1.847000 4
152804.547000 497927.906000 -1.091000 4
152803.813000 497927.406000 -1.275000 4
152804.281000 497926.938000 -0.540000 4
152804.125000 497926.094000 -0.690000 4
152803.875000 497925.313000 -1.061000 4
152803.453000 497925.594000 -1.304000 4
152802.891000 497925.938000 -1.306000 4
152802.766000 497926.438000 -1.093000 4
152803.844000 497925.500000 -1.513000 4
152803.313000 497926.125000 -0.915000 4
152804.234000 497925.625000 -0.881000 4
152803.672000 497926.188000 -0.876000 4
152804.047000 497926.406000 -0.875000 4
152804.375000 497926.500000 -0.555000 4
152803.594000 497926.469000 -1.162000 4
152803.031000 497927.313000 -1.835000 4
152803.188000 497928.156000 -1.815000 4
152803.438000 497929.000000 -1.418000 4
152803.016000 497928.938000 -1.982000 4
152802.781000 497928.406000 -1.245000 4
152803.563000 497928.469000 -1.552000 4
152803.594000 497928.313000 -1.080000 4
152803.156000 497926.813000 -1.228000 4
152803.984000 497926.688000 -1.184000 4
152803.422000 497927.188000 -1.352000 4
152804.719000 497927.156000 -0.987000 4
152804.156000 497927.406000 -1.227000 4
152804.016000 497928.000000 -0.856000 4
152804.969000 497927.906000 -1.051000 4
152804.703000 497927.281000 -1.530000 4
152804.531000 497927.938000 -1.848000 4
152804.844000 497926.656000 -0.378000 4
152805.453000 497927.656000 -0.484000 4
152805.125000 497927.188000 -0.142000 4
152805.250000 497926.719000 -0.212000 4
152805.547000 497927.313000 -0.388000 4
152804.500000 497926.031000 -0.739000 4
152804.609000 497925.563000 -0.862000 4
152805.984000 497925.469000 -0.835000 4
152805.438000 497925.938000 -0.225000 4
152805.844000 497926.031000 -0.494000 4
152805.766000 497926.344000 -0.630000 4
152804.984000 497926.063000 -0.758000 4
152805.063000 497925.750000 -0.699000 4
152806.219000 497926.063000 -1.438000 4
152806.188000 497926.156000 -2.085000 4
152805.625000 497925.156000 -1.843000 4
152804.813000 497924.688000 -1.802000 4
152804.969000 497924.063000 -1.490000 4
152805.609000 497923.531000 -2.005000 4
152806.516000 497923.250000 -1.944000 4
152806.281000 497922.438000 -2.440000 4
152806.422000 497921.813000 -2.002000 4
152805.594000 497921.469000 -1.967000 4
152804.891000 497921.125000 -1.375000 4
152805.484000 497920.500000 -1.467000 4
152806.375000 497920.344000 -1.043000 4
152806.578000 497921.188000 -0.750000 4
152807.125000 497920.719000 -1.384000 4
152806.172000 497921.156000 -1.000000 4
152806.719000 497920.563000 -1.214000 4
152805.938000 497920.031000 -0.785000 4
152805.266000 497919.531000 -1.288000 4
152804.844000 497919.813000 -0.611000 4
152804.906000 497919.563000 -1.921000 4
152804.313000 497920.063000 -2.526000 4
152803.734000 497919.281000 -2.427000 4
152803.516000 497918.625000 -1.936000 4
152802.688000 497918.688000 -2.267000 4
152802.234000 497919.000000 -2.762000 4
152801.703000 497919.531000 -2.361000 4
152800.859000 497919.563000 -2.895000 4
152802.328000 497918.594000 -1.998000 4
152801.938000 497918.531000 -1.106000 4
152802.109000 497919.500000 -0.948000 4
152802.875000 497919.375000 -0.339000 4
152802.547000 497919.281000 -0.248000 4
152802.219000 497919.063000 -0.238000 4
152802.453000 497919.625000 -0.358000 4
152802.125000 497919.438000 -0.321000 4
152801.047000 497918.813000 -1.175000 4
152800.641000 497918.750000 -0.834000 4
152799.828000 497918.594000 -0.670000 4
152801.125000 497918.469000 -1.010000 4
152801.344000 497919.063000 -1.279000 4
152802.094000 497917.875000 -0.790000 4
152801.391000 497918.875000 -0.891000 4
152802.406000 497918.250000 -0.980000 4
152801.500000 497918.438000 -0.878000 4
152802.016000 497918.250000 -0.847000 4
152802.328000 497918.563000 -1.194000 4
152802.281000 497918.781000 -2.426000 4
152802.703000 497918.625000 -1.609000 4
152803.109000 497918.375000 -1.442000 4
152803.594000 497918.313000 -0.782000 4
152804.313000 497918.625000 -0.198000 4
152804.266000 497918.750000 -0.695000 4
152803.844000 497918.844000 -0.909000 4
152803.906000 497918.563000 -0.584000 4
152803.031000 497918.688000 -1.703000 4
152803.844000 497918.844000 -1.758000 4
152803.250000 497919.719000 -2.134000 4
152803.359000 497919.313000 -2.968000 4
152803.203000 497919.938000 -3.249000 4
152803.453000 497920.500000 -3.311000 4
152802.922000 497921.125000 -3.225000 4
152802.953000 497920.938000 -2.834000 4
152803.500000 497918.688000 -2.546000 4
152803.438000 497918.938000 -2.867000 4
152803.766000 497919.156000 -1.914000 4
152805.031000 497920.563000 -2.476000 4
152804.938000 497920.938000 -3.354000 4
152804.984000 497920.750000 -2.941000 4
152805.422000 497920.719000 -2.650000 4
152803.672000 497919.563000 -2.723000 4
152804.188000 497920.594000 -3.105000 4
152803.844000 497920.563000 -2.848000 4
152803.969000 497920.000000 -3.104000 4
152804.703000 497920.406000 -2.759000 4
152804.203000 497920.469000 -2.510000 4
152804.203000 497919.063000 -1.676000 4
152804.750000 497920.188000 -2.338000 4
152805.703000 497919.563000 -0.910000 4
152806.281000 497920.688000 -1.102000 4
152805.875000 497920.281000 -1.047000 4
152805.063000 497920.375000 -1.267000 4
152804.984000 497920.719000 -1.355000 4
152805.438000 497920.688000 -1.933000 4
152805.750000 497920.844000 -2.407000 4
152805.297000 497921.219000 -2.413000 4
152806.422000 497921.844000 -1.129000 4
152806.672000 497922.625000 -0.873000 4
152806.563000 497923.031000 -0.837000 4
152806.750000 497923.813000 -1.071000 4
152807.094000 497924.438000 -1.600000 4
152806.625000 497924.344000 -2.436000 4
152807.016000 497924.781000 -2.566000 4
152807.953000 497924.438000 -2.542000 4
152808.141000 497925.250000 -2.029000 4
152807.656000 497923.781000 -2.219000 4
152806.266000 497924.313000 -2.336000 4
152807.078000 497924.531000 -2.268000 4
152807.438000 497924.688000 -1.998000 4
152807.516000 497924.344000 -1.834000 4
152807.156000 497924.219000 -1.256000 4
152806.688000 497924.094000 -1.397000 4
152806.750000 497922.281000 -0.686000 4
152807.016000 497921.219000 -2.054000 4
152806.578000 497921.219000 -1.594000 4
152806.109000 497921.375000 -2.165000 4
152806.234000 497922.594000 -2.866000 4
152806.109000 497923.125000 -1.084000 4
152806.953000 497923.000000 -1.133000 4
152807.484000 497922.813000 -1.588000 4
152807.313000 497923.594000 -1.659000 4
152806.703000 497924.031000 -2.246000 4
152806.891000 497923.281000 -1.304000 4
152806.547000 497923.125000 -1.439000 4
152806.375000 497923.875000 -1.572000 4
152805.125000 497923.438000 -2.776000 4
152804.766000 497923.469000 -2.737000 4
152805.063000 497923.719000 -2.986000 4
152805.266000 497922.813000 -2.394000 4
152805.484000 497924.031000 -2.448000 4
152805.578000 497923.594000 -2.632000 4
152805.938000 497923.813000 -2.094000 4
152806.031000 497923.438000 -2.022000 4
152805.313000 497924.688000 -1.124000 4
152806.047000 497926.781000 -2.451000 4
152806.125000 497926.438000 -2.348000 4
152805.844000 497926.063000 -2.059000 4
152805.766000 497926.406000 -3.043000 4
152805.797000 497926.250000 -2.539000 4
152804.125000 497927.594000 -3.299000 4
152805.484000 497927.594000 -3.050000 4
152804.625000 497927.594000 -3.387000 4
152805.031000 497927.656000 -3.150000 4
152805.266000 497926.656000 -2.775000 4
152804.688000 497927.313000 -3.149000 4
152804.203000 497927.250000 -3.247000 4
152804.281000 497926.938000 -3.013000 4
152803.969000 497926.781000 -1.803000 4
152803.469000 497927.063000 -2.507000 4
152803.906000 497927.063000 -2.820000 4
152803.438000 497925.625000 -2.766000 4
152804.313000 497926.781000 -2.487000 4
152805.156000 497925.344000 -2.220000 4
152805.078000 497925.719000 -2.296000 4
152804.250000 497925.625000 -2.499000 4
152805.266000 497924.938000 -2.346000 4
152805.391000 497924.375000 -2.661000 4
152804.969000 497924.094000 -3.032000 4
152804.703000 497923.750000 -2.995000 4
152804.891000 497924.406000 -3.213000 4
152804.641000 497924.031000 -3.270000 4
152804.531000 497924.406000 -3.347000 4
152804.250000 497923.781000 -3.308000 4
152804.063000 497924.563000 -3.407000 4
152802.922000 497924.344000 -3.325000 4
152803.359000 497924.031000 -2.698000 4
152801.531000 497924.938000 -2.074000 4
152801.375000 497925.625000 -1.425000 4
152800.781000 497925.000000 -1.282000 4
152800.094000 497924.281000 -1.268000 4
152799.547000 497925.031000 -1.585000 4
152799.797000 497925.531000 -1.970000 4
152800.125000 497926.094000 -1.268000 4
152800.406000 497926.563000 -1.437000 4
152799.813000 497925.469000 -1.330000 4
152799.500000 497925.219000 -2.009000 4
152799.969000 497924.813000 -2.668000 4
152800.344000 497925.188000 -3.110000 4
152800.531000 497926.063000 -3.220000 4
152801.359000 497925.656000 -3.069000 4
152802.078000 497926.156000 -3.135000 4
152802.094000 497926.125000 -2.408000 4
152802.156000 497925.844000 -2.122000 4
152801.766000 497925.875000 -2.683000 4
152801.141000 497925.125000 -3.182000 4
152801.047000 497925.500000 -3.226000 4
152800.641000 497925.625000 -3.367000 4
152800.734000 497925.188000 -3.361000 4
152800.281000 497925.438000 -3.405000 4
152799.938000 497924.906000 -3.255000 4
152800.375000 497925.031000 -2.662000 4
152799.969000 497924.781000 -1.926000 4
152799.641000 497924.656000 -1.452000 4
152799.719000 497924.313000 -1.343000 4
152800.219000 497925.688000 -1.316000 4
152800.938000 497924.375000 -0.977000 4
152801.766000 497923.969000 -0.739000 4
152802.047000 497924.688000 -0.868000 4
152802.156000 497924.281000 -0.935000 4
152802.234000 497923.938000 -0.831000 4
152803.109000 497923.594000 -0.734000 4
152801.453000 497923.781000 -0.886000 4
152801.688000 497924.313000 -0.908000 4
152801.328000 497924.344000 -0.667000 4
152801.000000 497924.125000 -0.693000 4
152801.281000 497924.531000 -1.095000 4
152800.359000 497925.125000 -1.703000 4
152800.406000 497924.906000 -1.224000 4
152800.969000 497925.844000 -0.937000 4
152800.922000 497926.031000 -1.336000 4
152801.078000 497925.406000 -1.023000 4
152801.797000 497925.781000 -1.189000 4
152801.141000 497925.094000 -2.457000 4
152801.234000 497924.750000 -2.334000 4
152801.609000 497924.625000 -1.836000 4
152802.500000 497924.438000 -3.402000 4
152802.234000 497925.531000 -1.921000 4
152801.516000 497925.063000 -2.588000 4
152801.859000 497925.500000 -2.532000 4
152802.625000 497925.594000 -2.278000 4
152801.922000 497925.219000 -2.286000 4
152801.953000 497925.094000 -1.817000 4
152802.641000 497925.531000 -1.637000 4
152802.422000 497924.750000 -1.923000 4
152802.766000 497925.031000 -1.941000 4
152802.531000 497924.250000 -1.293000 4
152803.531000 497925.250000 -1.168000 4
152803.172000 497924.750000 -1.251000 4
152803.313000 497924.188000 -0.817000 4
152803.563000 497925.094000 -0.554000 4
152804.469000 497924.656000 -1.110000 4
152803.938000 497925.094000 -0.665000 4
152803.625000 497924.844000 -0.306000 4
152804.500000 497924.563000 -0.547000 4
152803.719000 497924.438000 -0.286000 4
152804.984000 497924.000000 -0.824000 4
152803.469000 497923.531000 -0.509000 4
152804.641000 497923.969000 -0.042000 4
152804.609000 497924.063000 -0.700000 4
152803.906000 497923.688000 -0.926000 4
152804.250000 497923.813000 -0.823000 4
152805.141000 497923.344000 -0.598000 4
152804.797000 497923.313000 -0.652000 4
152805.234000 497923.000000 -0.474000 4
152804.891000 497922.906000 -2.167000 4
152805.797000 497922.719000 -1.126000 4
152804.531000 497922.625000 -0.803000 4
152803.625000 497922.875000 -1.024000 4
152804.781000 497921.531000 -1.358000 4
152804.219000 497922.375000 -1.195000 4
152803.531000 497921.844000 -1.772000 4
152803.813000 497922.125000 -1.648000 4
152804.438000 497921.500000 -1.357000 4
152804.609000 497920.813000 -1.063000 4
152803.219000 497921.438000 -1.437000 4
152803.594000 497921.594000 -1.547000 4
152804.109000 497920.875000 -0.924000 4
152803.703000 497921.094000 -1.754000 4
152804.063000 497921.063000 -1.353000 4
152804.109000 497919.438000 -1.747000 4
152804.297000 497920.125000 -0.867000 4
152804.219000 497920.406000 -1.137000 4
152803.469000 497920.438000 -1.760000 4
152802.406000 497919.844000 -0.733000 4
152802.781000 497919.719000 -0.367000 4
152802.969000 497920.875000 -1.366000 4
152803.875000 497920.375000 -0.725000 4
152803.234000 497919.781000 -0.320000 4
152803.469000 497920.406000 -1.017000 4
152802.703000 497920.063000 -0.450000 4
152803.016000 497920.688000 -0.903000 4
152802.234000 497920.563000 -0.105000 4
152802.516000 497920.875000 -1.253000 4
152802.172000 497920.813000 -0.476000 4
152801.531000 497921.875000 -1.032000 4
152801.156000 497921.781000 -1.148000 4
152801.797000 497920.781000 -0.865000 4
152801.016000 497920.406000 -0.224000 4
152800.766000 497921.469000 -1.350000 4
152801.469000 497920.500000 -1.211000 4
152801.234000 497921.438000 -0.985000 4
152801.328000 497921.063000 -0.887000 4
152801.031000 497920.344000 -1.146000 4
152800.203000 497920.563000 -1.940000 4
152800.563000 497920.813000 -1.178000 4
152799.859000 497920.313000 -1.356000 4
152800.531000 497919.156000 -0.825000 4
152800.172000 497919.000000 -0.792000 4
152800.297000 497920.125000 -1.230000 4
152800.359000 497919.875000 -0.939000 4
152800.469000 497919.438000 -0.985000 4
152800.156000 497919.094000 -1.404000 4
152799.969000 497919.906000 -1.459000 4
152799.438000 497920.188000 -1.606000 4
152799.734000 497918.938000 -0.817000 4
152799.516000 497919.875000 -1.385000 4
152799.594000 497919.500000 -1.314000 4
152800.188000 497934.000000 -1.922000 5
152800.984000 497933.844000 -2.308000 5
152801.609000 497933.250000 -2.747000 5
152802.281000 497933.781000 -3.018000 5
152802.500000 497932.875000 -3.273000 5
152803.250000 497933.313000 -3.283000 5
152802.938000 497932.469000 -3.257000 5
152802.875000 497932.781000 -3.386000 5
152803.156000 497933.656000 -3.379000 5
152803.000000 497934.344000 -2.768000 5
152802.875000 497934.875000 -2.567000 5
152802.750000 497933.250000 -3.299000 5
152802.172000 497934.250000 -2.834000 5
152802.531000 497934.188000 -2.910000 5
152802.625000 497933.781000 -3.049000 5
152800.891000 497932.813000 -2.431000 5
152801.250000 497932.750000 -2.150000 5
152801.563000 497933.438000 -1.554000 5
152802.234000 497933.938000 -1.044000 5
152803.125000 497933.813000 -1.395000 5
152803.469000 497934.094000 -0.619000 5
152804.063000 497933.438000 -0.882000 5
152804.328000 497933.906000 -1.717000 5
152804.156000 497934.625000 -1.907000 5
152804.531000 497935.063000 -1.099000 5
152803.906000 497935.688000 -1.400000 5
152803.000000 497936.031000 -1.597000 5
152802.125000 497935.875000 -1.880000 5
152802.281000 497935.250000 -1.588000 5
152801.547000 497935.000000 -1.657000 5
152801.547000 497935.000000 -2.616000 5
152801.219000 497934.875000 -1.859000 5
152802.375000 497934.844000 -1.570000 5
152801.844000 497935.625000 -1.672000 5
152802.188000 497935.594000 -1.688000 5
152803.359000 497936.375000 -2.218000 5
152802.531000 497936.313000 -2.018000 5
152802.594000 497936.000000 -1.824000 5
152802.641000 497935.781000 -1.472000 5
152802.938000 497936.281000 -1.950000 5
152803.422000 497936.125000 -1.870000 5
152803.734000 497936.344000 -1.662000 5
152804.547000 497936.656000 -2.099000 5
152805.375000 497936.719000 -2.307000 5
152805.938000 497936.563000 -1.512000 5
152806.109000 497935.781000 -1.410000 5
152806.281000 497935.063000 -1.172000 5
152805.969000 497934.281000 -0.659000 5
152805.703000 497933.781000 0.056000 5
152805.469000 497932.844000 -0.163000 5
152805.188000 497932.375000 -0.974000 5
152804.891000 497931.563000 -0.819000 5
152804.000000 497931.906000 -1.095000 5
152803.906000 497932.313000 -0.278000 5
152803.063000 497932.000000 -0.082000 5
152802.547000 497932.688000 -0.407000 5
152801.813000 497932.344000 -0.484000 5
152802.156000 497932.469000 -0.360000 5
152802.844000 497932.906000 -0.643000 5
152802.906000 497931.156000 -0.297000 5
152803.453000 497930.375000 -0.007000 5
152803.813000 497930.969000 -0.706000 5
152803.094000 497930.406000 -0.948000 5
152802.859000 497929.531000 -0.733000 5
152802.422000 497929.844000 -0.706000 5
152802.313000 497930.344000 -1.315000 5
152802.453000 497931.250000 -1.230000 5
152802.219000 497930.719000 -1.344000 5
152802.984000 497930.875000 -1.630000 5
152802.359000 497930.125000 -0.910000 5
152802.766000 497929.938000 -0.677000 5
152802.719000 497930.156000 -1.036000 5
152804.297000 497930.656000 -0.272000 5
152803.859000 497930.781000 -0.180000 5
152802.516000 497930.969000 -1.009000 5
152803.250000 497931.188000 -0.929000 5
152803.359000 497930.719000 -0.157000 5
152802.234000 497932.125000 -0.300000 5
152802.609000 497932.375000 -0.216000 5
152802.719000 497931.938000 -0.309000 5
152803.375000 497932.750000 -0.199000 5
152803.719000 497931.344000 -0.646000 5
152804.016000 497931.813000 -0.394000 5
152804.219000 497931.000000 -0.460000 5
152804.656000 497930.938000 -0.186000 5
152804.391000 497932.063000 -0.349000 5
152805.453000 497931.250000 -0.827000 5
152805.188000 497930.344000 -0.918000 5
152806.141000 497930.094000 -0.818000 5
152806.828000 497930.750000 -0.553000 5
152807.750000 497930.563000 -0.283000 5
152808.547000 497930.750000 -0.799000 5
152809.438000 497930.594000 -1.103000 5
152809.672000 497931.250000 -0.453000 5
152809.547000 497931.813000 -0.919000 5
152810.391000 497931.750000 -1.360000 5
152810.984000 497932.531000 -1.411000 5
152810.453000 497933.094000 -0.832000 5
152811.219000 497933.156000 -0.469000 5
152811.563000 497933.563000 -0.897000 5
152811.453000 497934.000000 -1.562000 5
152810.688000 497933.781000 -2.149000 5
152809.828000 497934.094000 -2.223000 5
152808.984000 497934.156000 -2.701000 5
152809.141000 497935.031000 -3.153000 5
152808.375000 497935.000000 -2.767000 5
152808.969000 497935.750000 -3.244000 5
152809.734000 497936.094000 -2.795000 5
152809.906000 497937.031000 -2.730000 5
152810.813000 497936.688000 -2.771000 5
152811.000000 497937.469000 -2.528000 5
152810.484000 497938.063000 -2.442000 5
152809.578000 497938.375000 -2.437000 5
152809.891000 497938.625000 -2.332000 5
152810.250000 497939.031000 -1.960000 5
152810.438000 497939.781000 -1.864000 5
152809.906000 497940.406000 -2.389000 5
152810.578000 497940.906000 -1.913000 5
152810.875000 497941.313000 -2.485000 5
152810.734000 497941.844000 -2.280000 5
152811.047000 497940.594000 -1.429000 5
152810.078000 497941.281000 -1.925000 5
152809.781000 497940.938000 -1.269000 5
152809.547000 497940.094000 -1.014000 5
152809.344000 497939.281000 -0.519000 5
152808.641000 497939.000000 -1.080000 5
152808.375000 497938.188000 -0.735000 5
152809.313000 497937.875000 -0.766000 5
152809.484000 497937.094000 -0.722000 5
152808.672000 497936.938000 -0.753000 5
152808.875000 497936.094000 -0.944000 5
152809.031000 497935.438000 -0.599000 5
152808.891000 497934.500000 -0.362000 5
152808.203000 497934.031000 -0.877000 5
152807.516000 497933.375000 -0.918000 5
152808.078000 497932.656000 -0.929000 5
152808.891000 497932.875000 -1.249000 5
152809.250000 497933.000000 -1.852000 5
152809.469000 497932.094000 -2.058000 5
152809.219000 497931.531000 -2.492000 5
152808.953000 497930.969000 -3.122000 5
152809.156000 497931.750000 -3.570000 5
152808.359000 497931.563000 -3.232000 5
152808.453000 497931.125000 -3.291000 5
152808.734000 497931.875000 -2.888000 5
152808.813000 497931.531000 -2.768000 5
152809.672000 497932.813000 -1.901000 5
152809.328000 497932.688000 -1.619000 5
152808.813000 497933.188000 -1.503000 5
152808.438000 497933.094000 -1.195000 5
152808.531000 497932.688000 -1.166000 5
152806.938000 497933.906000 -0.679000 5
152806.734000 497933.188000 -0.114000 5
152806.875000 497932.594000 -0.531000 5
152807.063000 497931.813000 -0.419000 5
152807.531000 497931.500000 -0.804000 5
152807.969000 497931.500000 -1.547000 5
152806.531000 497931.906000 -0.614000 5
152806.453000 497932.281000 -0.710000 5
152806.984000 497932.156000 -0.662000 5
152806.938000 497933.938000 -1.544000 5
152806.625000 497933.656000 -1.686000 5
152807.219000 497934.594000 -0.891000 5
152806.656000 497933.531000 -0.318000 5
152807.000000 497933.688000 -0.396000 5
152807.203000 497932.875000 -0.397000 5
152807.094000 497933.313000 -0.304000 5
152808.000000 497933.000000 -1.074000 5
152807.938000 497933.281000 -1.373000 5
152808.641000 497933.906000 -1.689000 5
152808.453000 497934.688000 -1.764000 5
152807.984000 497934.938000 -1.450000 5
152807.344000 497934.063000 -1.113000 5
152808.719000 497933.594000 -1.455000 5
152807.438000 497933.688000 -1.106000 5
152807.609000 497934.594000 -1.068000 5
152808.078000 497934.594000 -1.427000 5
152808.344000 497933.469000 -1.235000 5
152807.703000 497934.250000 -0.919000 5
152807.797000 497933.844000 -0.940000 5
152809.094000 497933.625000 -0.546000 5
152809.859000 497933.906000 -0.891000 5
152809.516000 497933.438000 -0.566000 5
152809.422000 497933.813000 -0.640000 5
152808.078000 497934.563000 -0.665000 5
152809.297000 497934.375000 -0.261000 5
152809.953000 497935.188000 -0.590000 5
152810.750000 497935.094000 -0.719000 5
152811.031000 497935.781000 -1.364000 5
152811.203000 497936.594000 -0.881000 5
152810.797000 497936.750000 -1.752000 5
152810.969000 497937.625000 -1.324000 5
152811.766000 497937.594000 -1.873000 5
152811.938000 497936.906000 -2.483000 5
152812.703000 497937.469000 -2.562000 5
152813.531000 497937.156000 -2.653000 5
152813.516000 497937.219000 -1.754000 5
152812.766000 497937.219000 -1.512000 5
152812.938000 497936.500000 -1.336000 5
152812.125000 497936.094000 -1.636000 5
152811.969000 497935.188000 -1.262000 5
152811.625000 497934.875000 -2.031000 5
152811.188000 497935.125000 -2.673000 5
152811.406000 497935.813000 -2.526000 5
152810.703000 497935.313000 -2.795000 5
152811.109000 497935.469000 -2.822000 5
152812.281000 497935.469000 -1.299000 5
152812.219000 497935.750000 -1.545000 5
152812.672000 497935.938000 -1.017000 5
152812.609000 497936.188000 -1.261000 5
152812.531000 497936.531000 -1.306000 5
152813.188000 497937.219000 -2.064000 5
152813.406000 497937.656000 -2.488000 5
152813.188000 497938.563000 -2.194000 5
152814.047000 497938.531000 -2.018000 5
152814.672000 497939.219000 -2.379000 5
152813.859000 497939.344000 -2.750000 5
152812.938000 497939.594000 -2.580000 5
152812.453000 497940.250000 -3.132000 5
152812.578000 497941.125000 -2.672000 5
152813.484000 497940.875000 -2.912000 5
152813.203000 497940.531000 -2.125000 5
152812.578000 497941.094000 -1.941000 5
152811.969000 497940.531000 -1.972000 5
152811.781000 497939.625000 -1.601000 5
152811.969000 497938.875000 -1.334000 5
152812.422000 497938.625000 -1.049000 5
152812.000000 497938.719000 -0.936000 5
152812.359000 497938.844000 -1.338000 5
152812.297000 497939.125000 -1.559000 5
152811.844000 497939.375000 -1.189000 5
152810.969000 497939.250000 -1.107000 5
152812.188000 497939.563000 -1.534000 5
152811.766000 497939.750000 -2.155000 5
152811.859000 497940.969000 -1.948000 5
152813.016000 497941.313000 -3.006000 5
152813.672000 497941.938000 -3.162000 5
152813.047000 497942.688000 -3.324000 5
152813.750000 497943.031000 -2.766000 5
152814.578000 497943.031000 -2.216000 5
152814.406000 497942.219000 -1.828000 5
152815.078000 497942.688000 -1.397000 5
152814.766000 497942.219000 -0.641000 5
152814.641000 497941.250000 -0.529000 5
152814.953000 497941.500000 -1.368000 5
152814.141000 497941.438000 -1.129000 5
152813.750000 497941.563000 -1.383000 5
152814.188000 497941.250000 -0.672000 5
152814.953000 497941.438000 -0.684000 5
152815.766000 497943.063000 -0.916000 5
152816.406000 497943.719000 -0.595000 5
152817.109000 497944.156000 -0.715000 5
152816.891000 497945.031000 -0.410000 5
152816.031000 497945.250000 -0.744000 5
152817.625000 497945.438000 -0.453000 5
152817.172000 497945.656000 -0.775000 5
152817.266000 497945.313000 -0.672000 5
152816.797000 497945.406000 -0.535000 5
152817.969000 497943.969000 -1.035000 5
152817.734000 497943.313000 -0.661000 5
152817.000000 497942.781000 -0.500000 5
152818.375000 497943.906000 -0.369000 5
152817.813000 497944.594000 -1.293000 5
152818.578000 497945.000000 -0.923000 5
152817.406000 497944.688000 -1.114000 5
152817.578000 497944.000000 -0.953000 5
152817.484000 497944.406000 -0.864000 5
152817.188000 497943.813000 -0.625000 5
152816.922000 497943.156000 -0.537000 5
152816.219000 497944.438000 -0.755000 5
152816.625000 497944.344000 -0.540000 5
152816.734000 497943.906000 -0.664000 5
152816.594000 497942.938000 -0.568000 5
152816.531000 497943.188000 -0.839000 5
152815.438000 497942.719000 -1.165000 5
152815.906000 497942.563000 -2.016000 5
152816.094000 497943.406000 -2.314000 5
152816.813000 497943.625000 -2.923000 5
152817.563000 497944.094000 -3.257000 5
152817.703000 497943.469000 -2.867000 5
152817.641000 497943.750000 -3.104000 5
152817.109000 497944.094000 -2.394000 5
152815.531000 497944.094000 -2.147000 5
152815.328000 497944.906000 -2.151000 5
152814.734000 497945.625000 -2.488000 5
152814.063000 497945.125000 -2.871000 5
152813.688000 497945.219000 -3.054000 5
152813.938000 497945.688000 -2.598000 5
152814.469000 497945.219000 -2.640000 5
152814.375000 497945.625000 -2.691000 5
152816.063000 497945.156000 -2.570000 5
152816.891000 497945.063000 -2.903000 5
152814.500000 497945.063000 -2.163000 5
152814.609000 497944.656000 -2.222000 5
152814.297000 497944.156000 -1.474000 5
152814.094000 497943.500000 -0.824000 5
152813.609000 497943.594000 -0.749000 5
152813.469000 497944.219000 -1.037000 5
152813.109000 497944.250000 -1.653000 5
152813.375000 497944.563000 -1.178000 5
152814.063000 497945.125000 -1.241000 5
152813.625000 497945.500000 -0.852000 5
152813.688000 497945.219000 -0.675000 5
152814.125000 497944.844000 -0.909000 5
152813.578000 497943.781000 -1.213000 5
152814.047000 497943.719000 -1.277000 5
152813.984000 497944.000000 -1.445000 5
152814.359000 497943.906000 -1.287000 5
152813.922000 497944.250000 -1.777000 5
152814.828000 497945.281000 -2.365000 5
152814.906000 497944.938000 -2.309000 5
152814.719000 497944.188000 -2.315000 5
152815.016000 497944.500000 -2.426000 5
152815.891000 497944.250000 -2.241000 5
152815.641000 497943.656000 -2.278000 5
152815.984000 497943.875000 -2.199000 5
152816.172000 497943.125000 -2.098000 5
152813.734000 497941.625000 -2.014000 5
152814.563000 497941.563000 -1.473000 5
152814.906000 497941.656000 -1.777000 5
152814.750000 497942.344000 -1.232000 5
152814.031000 497941.875000 -1.851000 5
152814.484000 497941.938000 -1.629000 5
152815.375000 497943.000000 -2.253000 5
152814.828000 497943.750000 -2.417000 5
152815.031000 497942.875000 -1.821000 5
152814.344000 497942.500000 -2.058000 5
152814.875000 497943.531000 -2.166000 5
152814.688000 497942.563000 -2.387000 5
152814.438000 497943.594000 -2.672000 5
152814.547000 497943.188000 -2.795000 5
152813.891000 497942.469000 -2.302000 5
152814.266000 497942.813000 -2.316000 5
152814.188000 497943.125000 -3.308000 5
152814.172000 497943.219000 -2.325000 5
152813.313000 497943.406000 -3.410000 5
152813.391000 497943.063000 -3.355000 5
152813.453000 497942.813000 -3.034000 5
152813.578000 497942.313000 -2.348000 5
152813.500000 497942.594000 -2.606000 5
152813.250000 497941.875000 -2.565000 5
152812.859000 497941.969000 -3.223000 5
152813.063000 497941.094000 -2.575000 5
152812.469000 497941.563000 -2.618000 5
152812.219000 497941.219000 -2.696000 5
152812.375000 497940.563000 -3.278000 5
152812.094000 497939.969000 -2.306000 5
152812.172000 497939.656000 -2.106000 5
152812.797000 497940.250000 -2.926000 5
152812.516000 497940.031000 -2.759000 5
152812.688000 497939.281000 -2.721000 5
152812.844000 497940.000000 -2.568000 5
152812.594000 497939.688000 -2.660000 5
152813.438000 497939.563000 -2.526000 5
152814.531000 497939.813000 -2.753000 5
152814.906000 497940.188000 -2.737000 5
152815.531000 497940.844000 -2.793000 5
152815.781000 497941.344000 -3.188000 5
152815.859000 497941.000000 -3.083000 5
152815.922000 497940.719000 -2.835000 5
152815.625000 497940.469000 -2.788000 5
152815.156000 497940.594000 -2.463000 5
152814.609000 497939.500000 -2.618000 5
152814.797000 497938.719000 -1.726000 5
152815.375000 497938.219000 -2.039000 5
152815.328000 497938.469000 -2.276000 5
152813.047000 497939.156000 -2.709000 5
152813.609000 497938.875000 -2.251000 5
152813.250000 497938.313000 -1.971000 5
152813.063000 497937.688000 -2.733000 5
152813.141000 497937.375000 -2.512000 5
152812.141000 497936.063000 -2.541000 5
152812.766000 497935.563000 -2.604000 5
152813.656000 497935.250000 -2.880000 5
152813.531000 497935.781000 -2.503000 5
152813.172000 497935.531000 -2.557000 5
152812.672000 497935.938000 -2.524000 5
152811.719000 497936.188000 -2.540000 5
152812.016000 497936.594000 -2.312000 5
152811.594000 497938.313000 -1.259000 5
152810.672000 497937.250000 -1.578000 5
152811.047000 497937.281000 -1.216000 5
152811.688000 497936.344000 -0.590000 5
152811.625000 497936.531000 -0.947000 5
152811.125000 497936.938000 -1.015000 5
152811.891000 497935.469000 -1.551000 5
152810.500000 497936.125000 -1.104000 5
152811.313000 497936.156000 -1.052000 5
152811.422000 497935.719000 -1.160000 5
152811.094000 497935.500000 -0.993000 5
152811.203000 497935.063000 -1.088000 5
152809.969000 497935.094000 -0.013000 5
152810.359000 497935.125000 -0.187000 5
152809.828000 497935.719000 -0.279000 5
152809.719000 497936.125000 -0.279000 5
152808.391000 497934.906000 -0.485000 5
152809.609000 497934.969000 -0.416000 5
152809.563000 497935.188000 -0.773000 5
152808.625000 497935.594000 -0.569000 5
152809.344000 497936.031000 -0.693000 5
152808.516000 497936.063000 -1.331000 5
152808.938000 497935.844000 -0.618000 5
152808.578000 497935.813000 -0.994000 5
152808.422000 497936.438000 -1.345000 5
152808.313000 497936.906000 -1.271000 5
152808.641000 497937.094000 -1.326000 5
152809.250000 497936.469000 -0.639000 5
152809.938000 497936.844000 -0.708000 5
152809.172000 497936.750000 -0.813000 5
152809.594000 497936.688000 -0.719000 5
152809.078000 497937.156000 -0.880000 5
152809.391000 497937.531000 -0.637000 5
152808.453000 497937.844000 -0.586000 5
152807.938000 497938.469000 -1.303000 5
152807.813000 497939.000000 -1.859000 5
152807.859000 497938.781000 -1.449000 5
152808.094000 497939.344000 -1.636000 5
152809.094000 497938.719000 -0.719000 5
152810.922000 497941.063000 -2.148000 5
152810.984000 497940.844000 -1.818000 5
152809.219000 497939.844000 -2.756000 5
152808.875000 497939.625000 -2.890000 5
152809.703000 497941.250000 -2.214000 5
152809.484000 497940.344000 -2.935000 5
152810.188000 497940.844000 -2.107000 5
152809.531000 497940.125000 -2.593000 5
152809.828000 497940.781000 -2.381000 5
152809.594000 497939.906000 -2.155000 5
152811.234000 497939.813000 -1.447000 5
152810.250000 497940.594000 -1.864000 5
152811.172000 497940.063000 -1.639000 5
152810.688000 497940.438000 -2.035000 5
152809.969000 497940.156000 -2.029000 5
152810.766000 497940.156000 -1.816000 5
152810.844000 497939.813000 -1.715000 5
152810.359000 497940.125000 -1.908000 5
152810.969000 497939.281000 -1.994000 5
152810.063000 497939.750000 -2.093000 5
152810.594000 497939.188000 -1.371000 5
152810.109000 497939.594000 -1.663000 5
152810.859000 497938.031000 -2.226000 5
152811.094000 497937.094000 -2.381000 5
152810.750000 497936.938000 -3.062000 5
152809.344000 497937.719000 -2.805000 5
152810.078000 497937.844000 -2.422000 5
152809.703000 497937.813000 -2.793000 5
152810.453000 497936.344000 -2.240000 5
152810.359000 497936.750000 -3.046000 5
152810.391000 497936.531000 -2.689000 5
152810.266000 497935.531000 -2.677000 5
152810.078000 497936.313000 -2.657000 5
152808.828000 497936.313000 -2.996000 5
152809.359000 497936.000000 -3.284000 5
152808.656000 497935.500000 -3.308000 5
152809.188000 497934.844000 -2.699000 5
152809.344000 497934.188000 -3.193000 5
152808.891000 497934.500000 -2.842000 5
152809.266000 497934.469000 -1.773000 5
152809.688000 497934.656000 -2.624000 5
152810.094000 497934.625000 -2.540000 5
152809.750000 497934.375000 -2.441000 5
152810.531000 497934.375000 -2.548000 5
152810.281000 497933.813000 -2.619000 5
152810.609000 497934.094000 -2.336000 5
152811.359000 497934.438000 -2.402000 5
152811.703000 497934.531000 -1.963000 5
152811.000000 497934.063000 -2.055000 5
152811.500000 497933.813000 -1.179000 5
152811.141000 497933.469000 -0.704000 5
152809.969000 497933.500000 -0.940000 5
152810.859000 497933.031000 -0.397000 5
152810.719000 497933.625000 -0.785000 5
152810.094000 497932.938000 -0.471000 5
152810.016000 497933.281000 -0.597000 5
152810.344000 497933.531000 -0.765000 5
152810.797000 497933.281000 -0.639000 5
152810.625000 497932.375000 -1.465000 5
152810.266000 497932.250000 -1.133000 5
152809.359000 497932.563000 -1.045000 5
152809.828000 497932.188000 -1.540000 5
152809.031000 497932.281000 -0.963000 5
152810.000000 497931.469000 -0.541000 5
152809.594000 497931.563000 -0.576000 5
152809.813000 497930.656000 -0.827000 5
152807.984000 497931.406000 -0.935000 5
152808.453000 497931.125000 -1.568000 5
152808.734000 497929.938000 -0.739000 5
152807.953000 497929.750000 -1.159000 5
152807.031000 497929.844000 -1.478000 5
152807.141000 497929.406000 -0.801000 5
152806.406000 497928.969000 -0.619000 5
152807.094000 497929.625000 -1.150000 5
152808.016000 497929.500000 -0.930000 5
152808.453000 497929.469000 -0.833000 5
152808.359000 497931.500000 -0.819000 5
152808.203000 497930.500000 -1.214000 5
152809.000000 497930.719000 -1.014000 5
152808.656000 497930.281000 -0.874000 5
152808.469000 497931.063000 -0.972000 5
152808.078000 497931.063000 -0.875000 5
152808.250000 497930.313000 -0.674000 5
152807.578000 497931.281000 -0.506000 5
152807.469000 497930.188000 -0.498000 5
152807.172000 497931.406000 -0.492000 5
152806.719000 497929.563000 -1.164000 5
152806.406000 497930.906000 -0.879000 5
152806.000000 497930.625000 -1.461000 5
152805.641000 497930.500000 -2.353000 5
152804.859000 497930.188000 -2.595000 5
152804.344000 497930.438000 -3.213000 5
152804.750000 497930.625000 -3.293000 5
152804.844000 497930.219000 -3.290000 5
152805.156000 497930.500000 -2.998000 5
152805.234000 497930.156000 -2.888000 5
152805.672000 497930.344000 -1.934000 5
152805.891000 497929.406000 -0.511000 5
152806.641000 497929.875000 -1.313000 5
152806.500000 497930.531000 -0.828000 5
152806.219000 497929.750000 -0.719000 5
152805.813000 497929.750000 -0.683000 5
152806.047000 497930.438000 -1.020000 5
152805.797000 497929.875000 -1.180000 5
152805.719000 497930.156000 -1.414000 5
152805.313000 497929.813000 -1.137000 5
152806.344000 497931.156000 -1.118000 5
152804.359000 497932.188000 -0.942000 5
152804.828000 497931.813000 -1.156000 5
152804.703000 497932.344000 -0.814000 5
152805.297000 497931.906000 -0.324000 5
152805.609000 497932.281000 -0.534000 5
152805.984000 497932.625000 0.206000 5
152805.203000 497932.313000 -0.363000 5
152805.016000 497933.063000 -0.349000 5
152805.922000 497932.875000 -0.068000 5
152805.328000 497933.438000 0.215000 5
152805.828000 497933.281000 -0.074000 5
152805.266000 497933.688000 -0.098000 5
152804.766000 497934.125000 -0.635000 5
152805.219000 497933.844000 -0.579000 5
152806.078000 497933.844000 0.087000 5
152806.594000 497933.781000 -0.580000 5
152806.047000 497933.906000 -0.569000 5
152805.609000 497934.188000 -0.663000 5
152805.969000 497934.250000 -1.597000 5
152805.563000 497934.375000 -2.032000 5
152805.938000 497934.438000 -2.060000 5
152805.656000 497934.031000 -1.890000 5
152807.141000 497934.938000 -0.939000 5
152805.469000 497934.750000 -1.251000 5
152806.484000 497934.250000 -1.311000 5
152806.422000 497934.531000 -1.493000 5
152806.719000 497934.844000 -1.321000 5
152805.766000 497935.156000 -1.399000 5
152805.703000 497935.375000 -1.743000 5
152806.219000 497935.375000 -1.415000 5
152805.547000 497936.031000 -1.220000 5
152805.063000 497936.438000 -0.960000 5
152805.172000 497936.000000 -1.114000 5
152805.453000 497936.438000 -1.154000 5
152806.000000 497936.250000 -1.286000 5
152805.563000 497935.969000 -2.153000 5
152804.875000 497937.281000 -2.511000 5
152805.078000 497936.438000 -2.674000 5
152804.922000 497937.031000 -2.236000 5
152804.672000 497936.188000 -2.247000 5
152804.500000 497936.875000 -2.459000 5
152804.297000 497936.094000 -1.449000 5
152803.844000 497935.938000 -1.691000 5
152805.266000 497935.594000 -1.133000 5
152804.719000 497935.938000 -1.173000 5
152805.391000 497935.063000 -1.348000 5
152805.078000 497934.469000 -0.964000 5
152805.016000 497934.719000 -1.242000 5
152804.438000 497935.469000 -1.125000 5
152804.953000 497935.000000 -1.468000 5
152804.625000 497934.688000 -1.079000 5
152803.672000 497935.063000 -1.613000 5
152803.750000 497934.781000 -1.426000 5
152804.031000 497935.125000 -1.699000 5
152804.891000 497933.563000 -1.755000 5
152804.094000 497933.344000 -1.884000 5
152804.453000 497933.406000 -1.900000 5
152804.781000 497934.063000 -1.564000 5
152804.297000 497932.500000 -1.050000 5
152804.969000 497933.250000 -0.855000 5
152803.359000 497932.844000 -0.868000 5
152804.563000 497932.906000 -0.434000 5
152804.516000 497933.156000 -0.786000 5
152804.188000 497932.938000 -1.044000 5
152804.406000 497933.563000 -0.785000 5
152803.656000 497933.313000 -0.589000 5
152803.781000 497934.594000 -0.985000 5
152803.969000 497933.844000 -1.628000 5
152803.344000 497934.594000 -1.296000 5
152803.266000 497933.250000 -0.926000 5
152803.484000 497934.063000 -1.565000 5
152803.563000 497933.719000 -1.388000 5
152802.969000 497934.438000 -0.957000 5
152802.734000 497933.344000 -0.622000 5
152802.672000 497933.625000 -1.653000 5
152802.359000 497933.438000 -0.451000 5
152802.547000 497934.156000 -1.452000 5
152802.234000 497933.969000 -1.837000 5
152802.344000 497933.531000 -1.114000 5
152802.328000 497933.594000 -1.789000 5
152801.734000 497934.219000 -1.669000 5
152801.844000 497933.750000 -0.951000 5
152801.938000 497933.375000 -0.953000 5
152801.828000 497933.844000 -1.550000 5
152801.734000 497932.719000 -1.334000 5
152802.109000 497932.688000 -2.404000 5
152801.734000 497932.719000 -2.248000 5
152801.891000 497933.594000 -2.941000 5
152801.688000 497932.875000 -2.666000 5
152801.297000 497934.531000 -1.797000 5
152801.703000 497934.375000 -2.172000 5
152801.484000 497933.719000 -1.730000 5
152801.156000 497933.188000 -2.021000 5
152801.422000 497934.000000 -2.040000 5
152801.078000 497933.469000 -2.139000 5
152800.719000 497933.500000 -1.778000 5
152800.484000 497934.469000 -2.257000 5
152800.672000 497933.719000 -2.184000 5
152800.563000 497934.125000 -2.127000 5
152809.375000 497942.625000 -1.758000 6
152810.219000 497942.406000 -1.293000 6
152810.016000 497943.219000 -1.161000 6
152810.969000 497943.031000 -1.021000 6
152811.484000 497942.531000 -1.175000 6
152812.141000 497942.938000 -1.323000 6
152811.984000 497942.188000 -0.697000 6
152812.188000 497942.719000 -1.030000 6
152811.891000 497942.563000 -1.542000 6
152810.813000 497943.656000 -1.467000 6
152811.484000 497944.219000 -1.443000 6
152812.172000 497944.781000 -1.512000 6
152812.328000 497945.625000 -1.247000 6
152811.906000 497945.906000 -1.546000 6
152811.469000 497945.688000 -2.283000 6
152811.250000 497945.219000 -1.901000 6
152810.922000 497944.844000 -2.177000 6
152811.125000 497945.750000 -2.421000 6
152811.203000 497945.438000 -2.236000 6
152812.703000 497945.875000 -1.538000 6
152812.000000 497945.500000 -1.562000 6
152811.594000 497945.219000 -1.563000 6
152812.078000 497945.156000 -1.485000 6
152811.000000 497944.500000 -1.998000 6
152811.703000 497944.719000 -1.724000 6
152811.031000 497944.375000 -1.382000 6
152810.891000 497943.313000 -1.293000 6
152810.344000 497943.500000 -1.268000 6
152810.438000 497943.094000 -1.210000 6
152810.531000 497942.688000 -1.242000 6
152809.516000 497942.063000 -1.384000 6
152809.688000 497942.938000 -1.782000 6
152809.453000 497942.313000 -1.735000 6
152823.578000 497934.781000 -1.194000 7
152824.328000 497935.031000 -1.574000 7
152825.125000 497934.875000 -1.056000 7
152825.203000 497934.531000 -0.173000 7
152825.734000 497933.781000 -0.220000 7
152826.375000 497934.406000 -0.535000 7
152826.063000 497934.250000 -1.398000 7
152826.359000 497934.438000 -2.141000 7
152826.594000 497935.094000 -1.614000 7
152827.391000 497935.188000 -1.271000 7
152828.172000 497935.063000 -1.416000 7
152829.016000 497934.938000 -1.624000 7
152829.172000 497934.281000 -1.246000 7
