153799.359000 496215.625000 -3.555000 1
153799.438000 496215.313000 -3.522000 1
153799.000000 496215.250000 -3.491000 1
153797.797000 496215.563000 -2.313000 1
153798.188000 496215.438000 -2.309000 1
153798.094000 496215.750000 -2.126000 1
153798.266000 496215.125000 -2.098000 1
153797.500000 496215.125000 -2.464000 1
153797.125000 496215.344000 -1.534000 1
153797.031000 496215.688000 -1.481000 1
153797.953000 496214.906000 -2.205000 1
153798.125000 496214.281000 -2.275000 1
153798.281000 496213.656000 -1.905000 1
153798.531000 496214.094000 -2.362000 1
153798.938000 496214.031000 -2.478000 1
153799.781000 496214.000000 -1.544000 1
153800.563000 496213.781000 -2.025000 1
153800.313000 496213.250000 -2.462000 1
153800.719000 496213.156000 -1.903000 1
153801.547000 496213.125000 -1.445000 1
153802.469000 496212.813000 -1.272000 1
153802.609000 496213.594000 -0.915000 1
153801.734000 496214.000000 -0.679000 1
153800.891000 496213.813000 -0.184000 1
153800.375000 496214.500000 -0.013000 1
153800.516000 496215.250000 0.538000 1
153800.984000 496215.250000 1.188000 1
153801.563000 496214.625000 0.862000 1
153802.297000 496214.781000 0.324000 1
153801.813000 496215.313000 -0.186000 1
153801.734000 496215.625000 -0.500000 1
153801.141000 496216.281000 -0.879000 1
153801.406000 496216.875000 -0.994000 1
153801.625000 496217.375000 -1.795000 1
153801.234000 496217.563000 -2.634000 1
153800.734000 496217.813000 -3.380000 1
153801.375000 496218.375000 -3.529000 1
153801.953000 496218.906000 -3.203000 1
153802.094000 496218.406000 -2.533000 1
153802.719000 496218.781000 -3.504000 1
153802.266000 496219.219000 -2.679000 1
153802.031000 496218.625000 -3.171000 1
153800.906000 496217.188000 -3.323000 1
153801.344000 496217.125000 -3.119000 1
153800.781000 496217.656000 -2.569000 1
153800.453000 496217.375000 -1.902000 1
153801.438000 496218.125000 -1.269000 1
153801.141000 496217.938000 -2.303000 1
153800.500000 496217.156000 -1.138000 1
153801.000000 496216.781000 -1.851000 1
153801.875000 496216.406000 -1.666000 1
153801.969000 496216.094000 -1.441000 1
153801.359000 496217.063000 -1.549000 1
153801.063000 496216.563000 -1.335000 1
153801.594000 496216.156000 -1.247000 1
153802.328000 496216.219000 -0.833000 1
153802.406000 496215.938000 -0.833000 1
153802.109000 496215.500000 -1.172000 1
153802.031000 496215.844000 -1.065000 1
153802.906000 496215.250000 -0.095000 1
153803.125000 496215.906000 0.585000 1
153803.766000 496216.438000 1.050000 1
153804.563000 496216.219000 1.073000 1
153805.234000 496216.688000 0.980000 1
153806.094000 496216.375000 1.346000 1
153805.891000 496215.625000 1.971000 1
153806.359000 496215.344000 1.231000 1
153807.203000 496215.250000 1.732000 1
153807.750000 496214.688000 1.440000 1
153808.438000 496215.219000 1.703000 1
153807.938000 496215.688000 1.099000 1
153808.141000 496216.344000 0.531000 1
153808.844000 496216.969000 0.417000 1
153809.516000 496217.344000 -0.191000 1
153808.641000 496217.750000 -0.404000 1
153807.906000 496217.219000 0.010000 1
153807.500000 496217.375000 -0.404000 1
153808.438000 496218.531000 0.153000 1
153807.547000 496218.656000 0.468000 1
153806.859000 496218.125000 0.816000 1
153806.328000 496218.625000 0.367000 1
153805.516000 496218.594000 0.932000 1
153804.641000 496218.938000 0.907000 1
153804.406000 496219.844000 0.575000 1
153803.656000 496219.688000 0.044000 1
153803.000000 496219.344000 0.629000 1
153802.438000 496218.563000 0.707000 1
153801.672000 496218.750000 0.238000 1
153801.766000 496219.594000 0.662000 1
153801.938000 496220.438000 0.476000 1
153801.172000 496220.719000 0.224000 1
153800.609000 496221.281000 -0.249000 1
153799.969000 496220.781000 0.292000 1
153799.250000 496220.125000 0.436000 1
153799.906000 496219.406000 0.649000 1
153800.625000 496219.875000 1.061000 1
153799.656000 496218.563000 0.994000 1
153800.297000 496217.938000 1.355000 1
153800.063000 496217.000000 1.173000 1
153800.266000 496216.250000 0.596000 1
153799.516000 496216.375000 0.601000 1
153799.000000 496217.031000 0.371000 1
153798.875000 496217.469000 1.186000 1
153798.688000 496218.188000 1.322000 1
153798.125000 496217.156000 0.117000 1
153797.313000 496217.375000 0.643000 1
153797.484000 496218.125000 0.071000 1
153796.625000 496218.500000 -0.171000 1
153797.219000 496219.125000 0.301000 1
153797.563000 496219.344000 -0.557000 1
153798.281000 496219.781000 -0.782000 1
153798.438000 496220.531000 -0.431000 1
153798.828000 496220.469000 -1.272000 1
153798.641000 496221.156000 -1.200000 1
153799.313000 496221.719000 -1.218000 1
153800.047000 496222.094000 -1.290000 1
153800.891000 496221.750000 -1.574000 1
153801.438000 496222.406000 -1.671000 1
153801.875000 496222.031000 -1.851000 1
153802.672000 496222.000000 -1.602000 1
153802.813000 496221.438000 -0.827000 1
153802.438000 496221.531000 0.064000 1
153801.906000 496221.938000 -0.444000 1
153801.656000 496221.563000 -0.625000 1
153801.563000 496221.938000 -0.630000 1
153801.984000 496221.625000 -0.294000 1
153802.063000 496221.313000 -0.169000 1
153803.609000 496221.188000 -0.986000 1
153804.469000 496221.094000 -0.536000 1
153805.297000 496220.813000 -0.230000 1
153805.578000 496221.531000 0.015000 1
153805.797000 496222.219000 -0.379000 1
153806.172000 496222.469000 -1.263000 1
153805.281000 496222.656000 -1.162000 1
153805.516000 496223.313000 -1.719000 1
153806.281000 496223.531000 -1.476000 1
153805.938000 496223.406000 -1.556000 1
153805.203000 496222.969000 -1.218000 1
153806.859000 496223.063000 -1.344000 1
153807.750000 496222.719000 -1.144000 1
153807.094000 496222.188000 -0.764000 1
153807.328000 496221.281000 -0.573000 1
153806.531000 496221.063000 -0.120000 1
153806.734000 496220.281000 -0.588000 1
153806.500000 496219.500000 -0.802000 1
153807.328000 496219.469000 -0.486000 1
153808.203000 496219.438000 -0.407000 1
153808.859000 496219.938000 -0.781000 1
153808.609000 496220.875000 -0.847000 1
153809.219000 496221.531000 -1.227000 1
153809.172000 496221.719000 -2.190000 1
153809.484000 496221.938000 -2.165000 1
153808.359000 496221.813000 -1.184000 1
153807.656000 496221.531000 -1.525000 1
153809.563000 496221.625000 -2.005000 1
153808.734000 496222.094000 -1.596000 1
153808.781000 496221.875000 -1.147000 1
153809.625000 496221.406000 -1.378000 1
153809.859000 496220.469000 -1.246000 1
153810.656000 496220.500000 -1.795000 1
153811.391000 496220.469000 -1.411000 1
153810.781000 496219.969000 -0.875000 1
153810.938000 496219.406000 -0.171000 1
153810.297000 496218.750000 0.169000 1
153809.734000 496218.188000 0.576000 1
153808.938000 496218.125000 0.925000 1
153809.797000 496217.969000 1.078000 1
153809.391000 496217.844000 0.738000 1
153809.313000 496218.188000 0.684000 1
153809.563000 496218.844000 0.666000 1
153809.656000 496218.500000 0.564000 1
153810.484000 496218.094000 0.053000 1
153811.016000 496217.313000 -0.013000 1
153811.672000 496217.875000 -0.171000 1
153811.875000 496217.094000 -0.737000 1
153811.734000 496216.313000 -1.049000 1
153811.078000 496215.813000 -1.297000 1
153810.344000 496215.875000 -1.441000 1
153810.063000 496215.313000 -0.766000 1
153810.438000 496215.500000 0.059000 1
153811.234000 496215.156000 0.412000 1
153811.047000 496214.500000 -0.311000 1
153811.875000 496214.000000 -0.107000 1
153811.781000 496213.063000 -0.109000 1
153811.422000 496213.031000 -1.034000 1
153810.813000 496212.375000 -0.781000 1
153811.297000 496212.188000 0.033000 1
153811.781000 496211.656000 0.485000 1
153811.203000 496210.875000 0.275000 1
153810.422000 496210.906000 -0.219000 1
153809.859000 496211.531000 0.217000 1
153808.922000 496211.875000 0.184000 1
153808.703000 496211.031000 -0.290000 1
153809.313000 496210.406000 -0.737000 1
153810.172000 496210.313000 -1.203000 1
153809.906000 496209.531000 -0.721000 1
153809.219000 496209.063000 -0.256000 1
153808.453000 496208.656000 0.130000 1
153808.234000 496208.125000 -0.659000 1
153808.047000 496207.313000 -0.522000 1
153808.563000 496206.906000 0.196000 1
153808.313000 496206.313000 -0.481000 1
153808.813000 496205.938000 0.227000 1
153809.516000 496206.344000 -0.073000 1
153809.719000 496205.563000 -0.584000 1
153809.422000 496204.969000 -0.257000 1
153808.828000 496204.344000 -0.188000 1
153808.500000 496204.125000 -0.926000 1
153808.453000 496204.281000 -1.902000 1
153807.578000 496204.563000 -1.519000 1
153808.188000 496205.313000 -1.621000 1
153808.375000 496206.063000 -1.911000 1
153808.188000 496206.813000 -1.395000 1
153807.391000 496206.563000 -1.518000 1
153807.750000 496206.969000 -1.584000 1
153808.734000 496206.250000 -1.520000 1
153808.000000 496206.031000 -1.471000 1
153808.484000 496205.688000 -2.184000 1
153808.609000 496205.188000 -2.804000 1
153809.016000 496205.156000 -2.167000 1
153809.813000 496205.219000 -2.338000 1
153810.500000 496205.813000 -2.469000 1
153811.344000 496205.844000 -1.981000 1
153811.594000 496206.344000 -1.506000 1
153811.797000 496207.156000 -1.444000 1
153811.375000 496207.188000 -0.572000 1
153811.797000 496207.156000 0.334000 1
153811.031000 496207.031000 0.959000 1
153810.641000 496206.719000 1.735000 1
153809.891000 496206.438000 1.438000 1
153810.422000 496206.094000 0.682000 1
153811.313000 496205.938000 0.282000 1
153812.172000 496205.719000 -0.018000 1
153812.750000 496204.938000 0.179000 1
153813.469000 496205.156000 0.804000 1
153813.625000 496204.594000 1.482000 1
153813.625000 496206.000000 0.841000 1
153814.484000 496205.688000 0.524000 1
153815.047000 496206.375000 0.748000 1
153814.859000 496207.125000 1.025000 1
153815.438000 496207.781000 0.611000 1
153816.234000 496207.531000 0.216000 1
153817.047000 496207.438000 -0.295000 1
153818.031000 496207.531000 -0.428000 1
153818.219000 496206.813000 -0.743000 1
153817.719000 496206.156000 -0.382000 1
153817.250000 496206.688000 -1.027000 1
153816.625000 496206.063000 -0.604000 1
153816.094000 496205.250000 -0.441000 1
153816.453000 496205.188000 -1.286000 1
153817.234000 496205.000000 -0.907000 1
153817.844000 496205.656000 -1.249000 1
153817.797000 496205.844000 -2.031000 1
153817.547000 496205.500000 -2.228000 1
153818.281000 496205.281000 -1.698000 1
153819.047000 496205.250000 -2.232000 1
153818.500000 496204.500000 -2.420000 1
153819.313000 496204.219000 -2.435000 1
153819.750000 496204.000000 -1.739000 1
153819.016000 496203.750000 -1.149000 1
153818.813000 496203.281000 -1.964000 1
153818.641000 496202.594000 -1.494000 1
153818.547000 496201.656000 -1.245000 1
153819.453000 496202.063000 -1.142000 1
153819.531000 496201.781000 -1.081000 1
153818.063000 496201.813000 -2.069000 1
153817.563000 496202.438000 -2.381000 1
153817.766000 496203.000000 -3.079000 1
153817.500000 496202.688000 -2.738000 1
153817.359000 496201.719000 -2.285000 1
153817.078000 496201.438000 -1.421000 1
153816.297000 496201.563000 -1.908000 1
153815.938000 496201.438000 -1.904000 1
153816.484000 496202.031000 -1.533000 1
153816.375000 496201.250000 -1.836000 1
153817.578000 496200.844000 -1.610000 1
153818.031000 496200.625000 -1.513000 1
153817.297000 496201.938000 -1.073000 1
153817.109000 496202.688000 -0.590000 1
153817.625000 496203.500000 -0.463000 1
153818.250000 496204.125000 -0.472000 1
153817.938000 496204.000000 -1.281000 1
153818.172000 496204.406000 -0.669000 1
153816.844000 496203.719000 -0.512000 1
153816.391000 496204.094000 0.134000 1
153815.594000 496204.313000 0.255000 1
153815.203000 496204.313000 1.053000 1
153814.734000 496204.719000 0.588000 1
153814.141000 496204.000000 0.637000 1
153813.594000 496203.313000 0.333000 1
153813.219000 496203.156000 -0.534000 1
153812.469000 496203.000000 0.009000 1
153811.594000 496203.031000 -0.187000 1
153810.844000 496202.781000 -0.403000 1
153810.125000 496202.219000 -0.766000 1
153810.688000 496201.813000 -1.464000 1
153811.469000 496202.094000 -0.982000 1
153811.656000 496201.313000 -1.566000 1
153811.875000 496201.969000 -2.170000 1
153812.375000 496201.813000 -2.074000 1
153812.828000 496201.656000 -2.071000 1
153812.422000 496201.625000 -1.471000 1
153812.125000 496201.000000 -1.972000 1
153811.953000 496201.688000 -1.954000 1
153811.359000 496200.813000 -1.719000 1
153812.016000 496201.406000 -1.658000 1
153811.750000 496201.000000 -1.489000 1
153811.875000 496201.969000 -0.428000 1
153811.531000 496201.813000 -0.815000 1
153811.406000 496202.344000 -1.392000 1
153812.078000 496202.969000 -1.280000 1
153812.750000 496203.500000 -1.529000 1
153812.563000 496204.188000 -1.212000 1
153813.250000 496204.688000 -1.244000 1
153813.438000 496205.313000 -1.926000 1
153813.938000 496206.063000 -2.053000 1
153813.438000 496206.688000 -2.640000 1
153813.063000 496206.750000 -2.973000 1
153813.703000 496207.000000 -2.384000 1
153813.125000 496206.500000 -2.633000 1
153814.828000 496205.719000 -1.843000 1
153814.641000 496206.469000 -1.210000 1
153814.828000 496207.219000 -1.688000 1
153814.063000 496207.344000 -1.248000 1
153814.234000 496208.063000 -1.776000 1
153814.891000 496208.156000 -2.249000 1
153814.484000 496208.594000 -1.374000 1
153815.250000 496208.500000 -0.925000 1
153815.844000 496209.094000 -0.388000 1
153815.266000 496209.781000 0.036000 1
153815.844000 496210.375000 -0.462000 1
153816.469000 496210.969000 -0.917000 1
153815.969000 496211.594000 -1.151000 1
153815.094000 496211.969000 -0.903000 1
153814.953000 496212.500000 -1.523000 1
153814.344000 496211.969000 -1.725000 1
153813.844000 496212.219000 -1.784000 1
153813.438000 496212.594000 -1.059000 1
153813.672000 496211.688000 -0.790000 1
153813.281000 496211.688000 0.106000 1
153812.844000 496212.031000 0.679000 1
153813.125000 496210.938000 0.226000 1
153812.750000 496210.656000 -0.604000 1
153812.234000 496211.313000 -0.863000 1
153812.063000 496211.969000 -0.667000 1
153812.156000 496211.625000 -0.680000 1
153812.109000 496210.375000 -0.985000 1
153811.984000 496210.906000 -1.746000 1
153811.156000 496211.094000 -2.261000 1
153810.531000 496210.469000 -2.528000 1
153809.688000 496210.406000 -3.009000 1
153809.516000 496211.063000 -3.057000 1
153810.297000 496211.375000 -2.895000 1
153808.734000 496210.906000 -2.772000 1
153809.063000 496211.344000 -2.776000 1
153809.250000 496210.656000 -3.023000 1
153809.328000 496210.313000 -2.886000 1
153809.594000 496210.750000 -2.942000 1
153810.984000 496210.281000 -2.523000 1
153811.141000 496209.656000 -2.121000 1
153811.281000 496209.125000 -1.430000 1
153810.531000 496208.969000 -1.302000 1
153810.266000 496208.156000 -1.204000 1
153809.547000 496207.781000 -1.693000 1
153809.219000 496207.500000 -0.838000 1
153809.578000 496207.688000 -0.357000 1
153809.953000 496207.906000 0.103000 1
153810.250000 496208.188000 0.905000 1
153810.016000 496209.125000 0.677000 1
153810.734000 496209.688000 0.293000 1
153811.563000 496209.500000 -0.036000 1
153812.047000 496209.313000 0.590000 1
153811.422000 496208.563000 0.804000 1
153811.000000 496208.656000 0.133000 1
153811.891000 496208.250000 0.340000 1
153811.500000 496208.281000 1.063000 1
153812.594000 496209.969000 0.757000 1
153811.344000 496208.875000 0.718000 1
153811.672000 496209.063000 1.186000 1
153812.109000 496209.031000 1.041000 1
153811.609000 496209.344000 0.758000 1
153812.313000 496209.594000 0.119000 1
153812.797000 496209.125000 -0.244000 1
153813.406000 496209.844000 -0.392000 1
153814.156000 496209.813000 -0.058000 1
153813.938000 496209.156000 0.581000 1
153814.125000 496208.438000 0.283000 1
153813.953000 496207.781000 1.003000 1
153813.094000 496208.031000 0.937000 1
153812.984000 496208.406000 1.175000 1
153813.438000 496207.969000 1.019000 1
153813.859000 496208.125000 0.962000 1
153814.297000 496207.750000 0.320000 1
153814.172000 496206.906000 -0.128000 1
153813.391000 496206.875000 0.101000 1
153812.766000 496206.563000 0.010000 1
153812.984000 496207.000000 0.075000 1
153813.078000 496206.656000 0.105000 1
153813.766000 496206.750000 -0.193000 1
153814.594000 496208.188000 -0.169000 1
153813.813000 496208.281000 0.043000 1
153813.703000 496208.688000 0.725000 1
153814.047000 496208.750000 0.299000 1
153813.625000 496209.031000 0.747000 1
153814.344000 496209.125000 -0.431000 1
153814.281000 496210.531000 -0.138000 1
153814.250000 496210.656000 -1.044000 1
153815.000000 496210.781000 -1.673000 1
153814.922000 496211.094000 -0.013000 1
153814.438000 496211.594000 -0.083000 1
153814.359000 496211.938000 0.034000 1
153815.375000 496210.875000 0.278000 1
153814.844000 496211.438000 0.058000 1
153814.625000 496210.875000 -0.403000 1
153814.188000 496210.906000 0.222000 1
153814.359000 496210.219000 -0.017000 1
153814.234000 496209.531000 0.173000 1
153814.094000 496210.094000 -0.494000 1
153813.719000 496210.000000 -0.219000 1
153813.484000 496209.563000 -0.106000 1
153811.906000 496209.844000 0.191000 1
153811.281000 496209.125000 0.495000 1
153811.469000 496209.875000 0.193000 1
153811.203000 496209.406000 0.114000 1
153810.875000 496209.125000 0.977000 1
153810.438000 496209.313000 0.503000 1
153809.672000 496208.969000 0.637000 1
153810.516000 496209.031000 0.932000 1
153811.031000 496208.531000 1.131000 1
153810.063000 496207.500000 1.269000 1
153809.219000 496207.500000 0.793000 1
153808.672000 496207.813000 0.790000 1
153809.141000 496207.813000 0.778000 1
153809.297000 496207.188000 1.002000 1
153809.750000 496208.688000 0.960000 1
153810.094000 496208.813000 0.707000 1
153810.594000 496208.688000 0.857000 1
153810.656000 496208.438000 1.078000 1
153809.984000 496207.781000 0.973000 1
153810.188000 496208.469000 0.441000 1
153809.297000 496207.188000 -0.865000 1
153810.172000 496207.094000 -0.956000 1
153810.531000 496207.156000 -1.257000 1
153810.406000 496207.594000 -0.544000 1
153809.828000 496208.375000 -0.811000 1
153809.922000 496208.031000 -0.980000 1
153810.359000 496207.781000 -1.374000 1
153810.359000 496207.813000 -1.207000 1
153810.188000 496208.469000 -1.186000 1
153810.109000 496208.750000 -1.416000 1
153810.891000 496209.063000 -1.318000 1
153811.547000 496209.563000 -1.475000 1
153811.469000 496209.875000 -1.632000 1
153811.219000 496209.375000 -1.803000 1
153811.250000 496210.719000 -2.196000 1
153812.094000 496210.469000 -2.205000 1
153811.750000 496210.469000 -2.104000 1
153811.656000 496210.813000 -2.043000 1
153811.891000 496211.250000 -1.801000 1
153812.531000 496210.188000 -1.751000 1
153813.219000 496210.625000 -1.555000 1
153811.797000 496210.281000 -1.410000 1
153813.328000 496210.156000 -0.584000 1
153812.438000 496210.563000 -1.263000 1
153812.547000 496210.125000 -0.185000 1
153812.313000 496211.000000 -0.685000 1
153812.875000 496210.156000 0.209000 1
153812.438000 496210.531000 0.142000 1
153813.891000 496210.844000 0.070000 1
153813.625000 496210.375000 0.091000 1
153812.766000 496210.594000 0.740000 1
153813.281000 496210.344000 0.433000 1
153813.531000 496210.719000 0.350000 1
153813.453000 496211.000000 0.010000 1
153813.047000 496211.250000 0.024000 1
153812.938000 496211.656000 0.430000 1
153813.438000 496211.094000 -1.511000 1
153813.375000 496211.375000 0.000000 1
153813.813000 496211.156000 -0.104000 1
153813.859000 496212.188000 -0.176000 1
153813.938000 496211.844000 -0.120000 1
153814.031000 496211.469000 -0.445000 1
153813.531000 496213.406000 -0.756000 1
153814.234000 496213.781000 -1.264000 1
153814.688000 496213.500000 -1.446000 1
153814.328000 496213.406000 -1.559000 1
153814.609000 496213.844000 -1.320000 1
153812.719000 496213.844000 -0.740000 1
153812.578000 496213.063000 -0.836000 1
153812.641000 496214.156000 -1.049000 1
153812.391000 496215.094000 -1.116000 1
153812.047000 496215.094000 -0.273000 1
153812.938000 496215.719000 -0.780000 1
153813.203000 496216.406000 -1.113000 1
153813.734000 496217.188000 -1.088000 1
153813.594000 496217.750000 -1.732000 1
153813.047000 496218.344000 -1.776000 1
153812.906000 496218.875000 -2.462000 1
153812.578000 496218.813000 -2.231000 1
153813.672000 496218.781000 -1.555000 1
153812.734000 496218.156000 -2.267000 1
153813.344000 496218.719000 -1.776000 1
153812.938000 496218.719000 -1.626000 1
153812.109000 496218.938000 -1.126000 1
153812.359000 496219.625000 -1.496000 1
153812.281000 496219.938000 -1.603000 1
153811.953000 496219.500000 -1.561000 1
153811.891000 496218.594000 -0.869000 1
153811.828000 496218.781000 -1.459000 1
153812.172000 496218.656000 -0.855000 1
153812.031000 496219.188000 -1.254000 1
153812.813000 496217.938000 -1.690000 1
153812.875000 496217.625000 -1.460000 1
153813.750000 496218.438000 -1.530000 1
153813.125000 496218.000000 -1.744000 1
153813.531000 496218.000000 -2.138000 1
153813.844000 496218.094000 -1.659000 1
153812.953000 496217.344000 -1.386000 1
153813.922000 496217.781000 -1.477000 1
153813.266000 496217.500000 -0.897000 1
153813.641000 496217.531000 -1.193000 1
153813.906000 496216.500000 -1.294000 1
153814.781000 496216.188000 -1.463000 1
153814.516000 496215.500000 -1.279000 1
153814.266000 496215.156000 -1.258000 1
153814.000000 496214.656000 -1.954000 1
153813.641000 496214.719000 -1.204000 1
153813.563000 496215.031000 -1.254000 1
153814.859000 496215.844000 -1.376000 1
153813.734000 496215.719000 -1.626000 1
153814.422000 496215.844000 -1.129000 1
153814.016000 496216.094000 -1.641000 1
153812.703000 496216.625000 -1.292000 1
153813.469000 496216.719000 -1.494000 1
153813.531000 496216.469000 -1.143000 1
153813.469000 496215.344000 -1.233000 1
153813.375000 496215.719000 -0.960000 1
153812.281000 496215.531000 -0.586000 1
153813.031000 496215.344000 -1.055000 1
153812.656000 496215.625000 -0.905000 1
153812.734000 496215.313000 -0.935000 1
153813.125000 496214.969000 -1.136000 1
153812.844000 496214.938000 -1.131000 1
153813.219000 496214.656000 -1.196000 1
153812.469000 496214.813000 -0.878000 1
153812.172000 496214.656000 -0.963000 1
153814.000000 496213.344000 -1.533000 1
153812.813000 496213.500000 -1.080000 1
153812.875000 496213.281000 -0.441000 1
153813.375000 496214.000000 -0.973000 1
153813.906000 496213.719000 -1.158000 1
153813.484000 496213.625000 -1.171000 1
153813.156000 496213.656000 -0.858000 1
153813.234000 496213.375000 -0.767000 1
153814.125000 496212.813000 -0.612000 1
153812.969000 496212.906000 -0.447000 1
153813.781000 496212.469000 -0.508000 1
153813.500000 496212.375000 -0.660000 1
153813.078000 496212.500000 -1.019000 1
153813.344000 496212.938000 -1.120000 1
153814.078000 496213.000000 -1.556000 1
153813.719000 496212.688000 -1.095000 1
153814.406000 496213.094000 -1.579000 1
153814.766000 496213.188000 -1.473000 1
153815.313000 496212.438000 -1.989000 1
153814.500000 496212.750000 -1.556000 1
153814.859000 496212.844000 -1.358000 1
153814.891000 496211.219000 -1.067000 1
153814.563000 496212.500000 -1.041000 1
153814.641000 496212.188000 -1.096000 1
153814.703000 496211.938000 -0.595000 1
153814.797000 496211.594000 -0.839000 1
153815.375000 496212.219000 -1.491000 1
153815.359000 496210.906000 -1.266000 1
153815.156000 496211.688000 -0.749000 1
153815.563000 496211.438000 -0.408000 1
153816.078000 496211.156000 -1.841000 1
153815.266000 496211.281000 -1.229000 1
153815.438000 496211.938000 -1.207000 1
153816.234000 496211.844000 -1.545000 1
153815.531000 496211.594000 -1.289000 1
153815.891000 496211.906000 -1.188000 1
153816.906000 496210.594000 -1.510000 1
153817.047000 496210.031000 -1.046000 1
153816.578000 496209.250000 -1.322000 1
153815.984000 496209.875000 -1.467000 1
153817.250000 496209.281000 -1.685000 1
153816.969000 496209.000000 -0.756000 1
153816.766000 496208.500000 0.039000 1
153816.516000 496209.469000 -1.941000 1
153817.453000 496209.750000 -0.934000 1
153817.125000 496209.750000 -0.837000 1
153816.672000 496210.188000 -1.543000 1
153816.625000 496211.719000 -0.725000 1
153816.328000 496211.531000 -1.405000 1
153816.375000 496211.344000 -0.765000 1
153816.797000 496211.000000 -1.099000 1
153816.703000 496210.063000 -0.573000 1
153815.031000 496210.719000 -0.288000 1
153816.125000 496211.000000 -1.006000 1
153815.438000 496210.594000 -1.098000 1
153815.688000 496211.000000 -0.895000 1
153816.297000 496210.313000 -0.982000 1
153816.219000 496210.656000 -0.919000 1
153815.766000 496210.688000 -0.550000 1
153814.438000 496209.906000 0.173000 1
153814.766000 496210.375000 0.168000 1
153814.531000 496209.563000 0.041000 1
153815.000000 496209.469000 0.565000 1
153814.922000 496209.750000 0.581000 1
153815.563000 496210.125000 -0.238000 1
153814.859000 496210.031000 0.143000 1
153815.172000 496210.125000 -0.069000 1
153816.703000 496208.719000 -0.492000 1
153816.453000 496209.719000 -0.586000 1
153816.344000 496208.469000 -0.177000 1
153815.656000 496209.813000 -0.031000 1
153815.422000 496209.188000 0.234000 1
153816.000000 496209.781000 -0.111000 1
153815.984000 496208.500000 -0.001000 1
153815.734000 496209.500000 0.078000 1
153815.359000 496209.406000 -0.173000 1
153816.250000 496208.813000 -0.097000 1
153816.078000 496209.438000 -0.285000 1
153816.172000 496209.125000 -0.256000 1
153814.781000 496208.563000 -0.084000 1
153815.922000 496208.719000 -0.295000 1
153815.531000 496208.750000 -0.162000 1
153815.422000 496209.188000 -1.279000 1
153815.141000 496208.938000 -0.557000 1
153814.734000 496208.781000 -0.820000 1
153814.609000 496208.063000 -2.353000 1
153813.844000 496208.188000 -2.071000 1
153813.266000 496208.688000 -2.496000 1
153813.344000 496208.344000 -2.390000 1
153814.141000 496208.375000 -1.760000 1
153814.938000 496208.000000 -1.461000 1
153815.500000 496207.531000 -0.781000 1
153815.984000 496207.000000 -0.616000 1
153815.734000 496206.656000 -0.333000 1
153815.656000 496206.906000 -0.828000 1
153814.328000 496207.688000 -1.917000 1
153814.406000 496207.375000 -1.764000 1
153815.031000 496207.625000 -1.715000 1
153814.766000 496207.531000 -1.840000 1
153815.109000 496207.313000 -1.539000 1
153815.188000 496207.031000 -1.467000 1
153815.344000 496206.438000 -1.051000 1
153815.813000 496206.344000 -1.907000 1
153816.406000 496206.906000 -1.550000 1
153817.141000 496207.094000 -2.174000 1
153816.594000 496207.500000 -1.697000 1
153817.250000 496207.969000 -1.151000 1
153816.328000 496207.188000 -1.639000 1
153816.594000 496206.188000 -1.706000 1
153816.125000 496206.438000 -1.810000 1
153815.875000 496206.094000 -1.484000 1
153814.906000 496206.938000 -1.684000 1
153815.063000 496206.375000 -0.988000 1
153815.297000 496206.594000 -1.943000 1
153815.375000 496205.125000 -2.392000 1
153814.781000 496204.594000 -1.833000 1
153814.156000 496203.906000 -1.523000 1
153814.313000 496203.313000 -1.173000 1
153814.828000 496202.656000 -0.897000 1
153814.609000 496202.188000 -1.753000 1
153813.938000 496202.031000 -1.104000 1
153813.969000 496201.875000 -1.933000 1
153814.203000 496202.344000 -1.718000 1
153815.109000 496203.281000 -0.230000 1
153815.859000 496203.250000 -0.087000 1
153816.063000 496202.500000 -0.539000 1
153816.141000 496202.156000 -0.418000 1
153815.047000 496203.563000 -0.451000 1
153815.391000 496203.563000 -1.190000 1
153815.766000 496203.656000 -1.602000 1
153814.125000 496202.625000 -0.261000 1
153813.453000 496202.219000 -0.186000 1
153813.109000 496202.094000 -0.410000 1
153815.188000 496203.000000 -1.684000 1
153814.703000 496203.125000 -0.175000 1
153815.563000 496202.906000 -1.015000 1
153815.391000 496202.219000 -0.654000 1
153815.313000 496202.531000 -0.685000 1
153814.922000 496202.313000 -0.936000 1
153814.469000 496202.688000 -0.894000 1
153814.656000 496203.313000 -0.686000 1
153814.406000 496202.969000 -1.099000 1
153814.578000 496203.625000 -1.065000 1
153814.500000 496203.906000 -1.135000 1
153814.406000 496204.250000 -0.996000 1
153814.016000 496204.469000 -0.258000 1
153813.703000 496204.250000 -0.251000 1
153814.313000 496204.625000 -1.051000 1
153814.250000 496204.875000 -1.455000 1
153815.109000 496204.688000 -2.272000 1
153815.656000 496205.219000 -2.234000 1
153815.406000 496206.188000 -2.408000 1
153815.016000 496205.000000 -2.222000 1
153814.688000 496204.906000 -1.827000 1
153814.719000 496206.156000 -1.185000 1
153815.563000 496205.594000 -1.960000 1
153815.469000 496205.969000 -1.811000 1
153815.266000 496205.563000 -2.016000 1
153814.906000 496205.438000 -1.645000 1
153813.547000 496206.281000 -1.210000 1
153813.688000 496205.719000 -0.558000 1
153814.594000 496206.656000 -2.075000 1
153814.172000 496206.906000 -1.934000 1
153813.203000 496206.188000 -2.362000 1
153814.516000 496205.594000 -1.815000 1
153813.781000 496206.656000 -2.427000 1
153813.500000 496206.469000 -2.001000 1
153814.266000 496206.563000 -2.064000 1
153814.375000 496206.156000 -2.285000 1
153813.859000 496206.344000 -2.247000 1
153814.188000 496205.125000 -1.764000 1
153814.016000 496205.781000 -1.922000 1
153814.094000 496205.469000 -1.756000 1
153813.281000 496205.906000 -2.170000 1
153813.656000 496205.813000 -1.872000 1
153813.750000 496205.500000 -1.805000 1
153813.344000 496205.656000 -1.909000 1
153813.828000 496205.156000 -1.782000 1
153813.531000 496204.969000 -1.937000 1
153813.953000 496204.719000 -0.883000 1
153813.688000 496204.313000 -1.737000 1
153813.594000 496204.656000 -1.799000 1
153812.969000 496204.125000 -0.749000 1
153812.125000 496204.313000 -1.610000 1
153811.844000 496203.875000 -1.890000 1
153812.063000 496204.563000 -2.109000 1
153812.219000 496204.000000 -1.662000 1
153812.672000 496203.750000 -1.982000 1
153812.297000 496203.688000 -1.579000 1
153811.234000 496201.281000 -1.150000 1
153811.063000 496201.969000 -1.090000 1
153811.141000 496201.625000 -1.215000 1
153810.781000 496201.469000 -1.498000 1
153809.266000 496202.594000 -0.759000 1
153809.141000 496203.125000 -1.408000 1
153808.250000 496203.281000 -1.523000 1
153808.000000 496202.938000 -1.391000 1
153807.938000 496203.219000 -1.693000 1
153808.344000 496202.938000 -1.714000 1
153809.469000 496203.375000 -0.873000 1
153810.219000 496203.625000 -0.497000 1
153811.031000 496203.781000 -1.001000 1
153810.656000 496203.500000 -1.875000 1
153810.484000 496204.156000 -1.701000 1
153809.688000 496203.938000 -2.201000 1
153811.219000 496204.500000 -0.907000 1
153810.813000 496204.594000 -0.062000 1
153810.844000 496204.438000 0.816000 1
153811.016000 496205.250000 1.135000 1
153811.891000 496205.250000 1.404000 1
153811.641000 496206.188000 1.219000 1
153811.828000 496207.031000 1.661000 1
153811.906000 496206.750000 1.792000 1
153812.438000 496206.125000 1.226000 1
153812.703000 496206.781000 1.186000 1
153812.078000 496206.031000 1.630000 1
153811.703000 496205.938000 1.617000 1
153812.344000 496205.031000 1.447000 1
153812.516000 496204.344000 1.135000 1
153811.781000 496204.125000 1.261000 1
153812.969000 496204.094000 0.840000 1
153812.172000 496204.156000 0.941000 1
153812.266000 496205.375000 1.441000 1
153811.969000 496204.906000 1.444000 1
153810.234000 496205.125000 1.429000 1
153810.563000 496205.594000 1.610000 1
153811.516000 496205.188000 1.530000 1
153810.641000 496205.250000 1.517000 1
153809.984000 496204.563000 0.962000 1
153809.359000 496205.188000 0.907000 1
153809.547000 496204.500000 0.752000 1
153811.719000 496204.375000 0.780000 1
153810.734000 496204.906000 1.526000 1
153811.359000 496203.938000 1.020000 1
153811.281000 496204.250000 1.032000 1
153810.922000 496204.188000 1.166000 1
153810.375000 496204.594000 0.638000 1
153811.219000 496204.469000 0.573000 1
153810.891000 496204.281000 0.025000 1
153811.594000 496204.844000 -0.164000 1
153811.688000 496204.500000 -0.194000 1
153810.953000 496204.063000 -1.163000 1
153810.094000 496204.094000 0.114000 1
153809.766000 496203.625000 -0.342000 1
153809.094000 496203.313000 -0.470000 1
153808.766000 496203.094000 -0.885000 1
153808.844000 496202.813000 -0.805000 1
153809.188000 496202.906000 -0.813000 1
153810.313000 496201.500000 -1.318000 1
153809.844000 496201.969000 -1.456000 1
153809.625000 496202.781000 -0.665000 1
153810.234000 496201.844000 -1.198000 1
153809.719000 496202.438000 -0.714000 1
153809.953000 496202.938000 -0.742000 1
153810.297000 496203.313000 -0.369000 1
153810.688000 496203.375000 -0.533000 1
153810.375000 496203.063000 -0.224000 1
153810.469000 496202.688000 -0.389000 1
153811.719000 496202.563000 -0.831000 1
153811.109000 496203.469000 -0.608000 1
153811.531000 496203.250000 -0.603000 1
153811.172000 496203.188000 -0.324000 1
153811.984000 496203.344000 0.584000 1
153812.281000 496202.219000 0.028000 1
153812.625000 496202.375000 0.145000 1
153812.203000 496202.500000 -0.248000 1
153812.094000 496202.906000 0.022000 1
153813.031000 496202.375000 -0.438000 1
153813.172000 496203.344000 -1.301000 1
153813.031000 496203.813000 -0.649000 1
153813.297000 496202.813000 -0.684000 1
153813.719000 496202.844000 -0.470000 1
153812.734000 496203.500000 0.363000 1
153814.047000 496202.969000 -0.310000 1
153812.844000 496203.125000 -0.026000 1
153813.969000 496203.250000 -0.391000 1
153813.438000 496203.938000 -0.094000 1
153813.875000 496203.563000 -0.338000 1
153813.328000 496202.688000 0.374000 1
153813.078000 496203.688000 0.557000 1
153814.266000 496203.500000 -0.046000 1
153813.750000 496204.063000 0.438000 1
153814.078000 496204.219000 0.224000 1
153815.094000 496204.688000 -0.336000 1
153814.844000 496204.344000 0.388000 1
153815.406000 496205.000000 0.340000 1
153815.141000 496204.500000 0.473000 1
153815.500000 496204.656000 0.344000 1
153815.891000 496204.344000 0.293000 1
153816.000000 496203.906000 -0.389000 1
153816.172000 496203.219000 -0.328000 1
153816.078000 496203.563000 -0.218000 1
153816.344000 496204.250000 -0.601000 1
153816.500000 496203.688000 -0.071000 1
153816.750000 496204.063000 -0.244000 1
153817.453000 496204.156000 -0.352000 1
153817.203000 496203.813000 -0.406000 1
153817.984000 496203.844000 -0.476000 1
153817.547000 496203.813000 -0.552000 1
153816.281000 496202.844000 -0.791000 1
153816.594000 496203.313000 -0.368000 1
153816.344000 496202.563000 -0.542000 1
153816.922000 496203.375000 -0.297000 1
153817.313000 496203.406000 -0.735000 1
153817.391000 496203.094000 -0.601000 1
153817.016000 496203.031000 -0.588000 1
153817.578000 496202.406000 -0.898000 1
153816.563000 496201.750000 -1.210000 1
153816.656000 496201.406000 -1.375000 1
153817.484000 496201.219000 -1.501000 1
153816.922000 496202.031000 -1.668000 1
153817.016000 496201.719000 -1.724000 1
153817.891000 496202.469000 -2.361000 1
153818.438000 496202.094000 -2.606000 1
153817.641000 496202.125000 -2.355000 1
153817.984000 496202.125000 -2.377000 1
153817.719000 496201.813000 -2.132000 1
153817.781000 496201.563000 -1.809000 1
153817.953000 496200.969000 -1.491000 1
153819.297000 496201.375000 -1.332000 1
153817.844000 496201.344000 -1.237000 1
153818.281000 496201.000000 -1.264000 1
153818.125000 496201.594000 -1.758000 1
153818.203000 496201.313000 -1.591000 1
153818.969000 496201.313000 -1.312000 1
153818.891000 496201.625000 -1.440000 1
153818.641000 496201.313000 -1.362000 1
153819.141000 496202.031000 -1.380000 1
153818.484000 496201.906000 -1.568000 1
153818.719000 496202.313000 -1.356000 1
153819.297000 496202.656000 -1.660000 1
153818.203000 496202.969000 -1.489000 1
153818.969000 496202.656000 -1.615000 1
153818.578000 496202.844000 -1.790000 1
153818.906000 496202.906000 -1.915000 1
153818.484000 496203.188000 -1.873000 1
153818.828000 496204.500000 -0.804000 1
153819.156000 496204.813000 -1.057000 1
153818.516000 496204.406000 -1.041000 1
153819.234000 496204.500000 -0.976000 1
153818.844000 496203.156000 -0.651000 1
153818.344000 496203.719000 -0.864000 1
153818.750000 496203.500000 -0.789000 1
153819.094000 496203.469000 -0.851000 1
153818.938000 496204.094000 -1.087000 1
153818.688000 496203.750000 -1.164000 1
153819.625000 496204.500000 -0.928000 1
153819.516000 496203.438000 -1.321000 1
153819.344000 496204.094000 -1.294000 1
153819.688000 496204.219000 -2.301000 1
153818.641000 496203.906000 -1.906000 1
153818.266000 496204.063000 -2.484000 1
153818.594000 496204.125000 -2.520000 1
153818.156000 496204.438000 -2.504000 1
153819.594000 496204.563000 -2.290000 1
153818.813000 496204.563000 -2.269000 1
153819.219000 496204.563000 -2.340000 1
153819.422000 496205.250000 -1.979000 1
153818.438000 496204.750000 -1.108000 1
153818.719000 496204.906000 -2.069000 1
153818.641000 496205.250000 -2.155000 1
153818.438000 496206.000000 -1.430000 1
153818.109000 496206.000000 -1.576000 1
153818.188000 496205.656000 -1.609000 1
153817.844000 496204.344000 -1.142000 1
153818.063000 496204.813000 -0.566000 1
153816.688000 496204.281000 -0.933000 1
153818.000000 496205.063000 -0.858000 1
153817.063000 496204.375000 -0.571000 1
153817.750000 496204.750000 -1.004000 1
153816.969000 496204.750000 -0.542000 1
153817.672000 496205.063000 -0.937000 1
153817.313000 496204.719000 -0.919000 1
153815.969000 496205.719000 -1.778000 1
153816.172000 496204.969000 -1.949000 1
153816.219000 496204.750000 -1.541000 1
153816.547000 496204.875000 -1.487000 1
153815.656000 496205.219000 -0.541000 1
153816.203000 496206.156000 -1.488000 1
153816.188000 496206.188000 0.251000 1
153816.281000 496205.875000 -1.454000 1
153815.984000 496205.656000 -0.212000 1
153816.359000 496205.563000 -1.233000 1
153816.297000 496205.813000 0.082000 1
153816.781000 496205.406000 -0.416000 1
153816.516000 496206.469000 -0.182000 1
153816.938000 496206.156000 -1.761000 1
153816.500000 496206.563000 -1.600000 1
153816.656000 496207.219000 -1.387000 1
153816.734000 496206.938000 -1.287000 1
153816.859000 496206.469000 -0.119000 1
153817.578000 496205.406000 -0.763000 1
153816.938000 496206.156000 -0.098000 1
153817.031000 496205.781000 -0.343000 1
153817.406000 496206.063000 -0.858000 1
153817.656000 496206.406000 -0.626000 1
153817.578000 496206.719000 -0.941000 1
153818.344000 496206.375000 -1.230000 1
153817.891000 496206.813000 -0.754000 1
153818.141000 496207.156000 -0.590000 1
153817.000000 496207.594000 -1.272000 1
153817.625000 496207.813000 -0.751000 1
153817.797000 496207.188000 -0.486000 1
153817.719000 496207.500000 -0.515000 1
153817.469000 496207.125000 -0.518000 1
153817.406000 496207.375000 -0.624000 1
153817.281000 496207.813000 -0.286000 1
153816.844000 496208.219000 0.187000 1
153816.953000 496207.813000 -0.146000 1
153816.422000 496206.844000 -0.020000 1
153816.078000 496208.156000 -0.098000 1
153816.422000 496208.156000 -0.074000 1
153816.500000 496207.844000 0.155000 1
153816.578000 496207.563000 0.354000 1
153816.156000 496207.844000 0.113000 1
153815.250000 496208.469000 0.534000 1
153815.875000 496207.469000 0.166000 1
153814.922000 496208.031000 0.534000 1
153815.672000 496208.219000 0.508000 1
153815.344000 496208.125000 0.367000 1
153815.766000 496207.875000 0.592000 1
153814.625000 496208.000000 0.761000 1
153814.031000 496207.438000 0.854000 1
153815.500000 496207.500000 0.762000 1
153815.578000 496207.219000 0.830000 1
153815.000000 496207.750000 0.813000 1
153814.359000 496207.531000 0.922000 1
153814.703000 496207.688000 0.877000 1
153815.078000 496207.438000 0.751000 1
153814.438000 496207.250000 1.044000 1
153814.797000 496207.375000 0.685000 1
153815.516000 496205.750000 0.701000 1
153815.422000 496206.125000 0.761000 1
153815.344000 496206.469000 0.857000 1
153814.641000 496206.469000 0.545000 1
153815.234000 496205.656000 0.446000 1
153815.141000 496206.031000 0.426000 1
153814.641000 496205.125000 0.929000 1
153814.969000 496205.219000 0.588000 1
153814.734000 496206.094000 0.193000 1
153814.875000 496205.594000 0.900000 1
153814.781000 496205.906000 0.891000 1
153814.563000 496205.406000 0.754000 1
153812.781000 496206.438000 0.883000 1
153814.328000 496206.313000 0.305000 1
153814.000000 496205.813000 0.038000 1
153812.938000 496205.844000 1.389000 1
153812.875000 496206.094000 0.796000 1
153813.125000 496206.500000 1.028000 1
153813.813000 496206.531000 0.482000 1
153813.297000 496204.469000 0.880000 1
153813.813000 496205.250000 0.271000 1
153813.844000 496205.125000 1.282000 1
153813.219000 496204.813000 1.077000 1
153813.547000 496204.875000 1.138000 1
153813.047000 496205.438000 0.868000 1
153812.109000 496204.375000 0.420000 1
153812.875000 496204.438000 0.895000 1
153812.578000 496204.125000 0.054000 1
153813.141000 496205.094000 0.874000 1
153812.469000 496204.563000 0.720000 1
153812.391000 496206.344000 0.620000 1
153812.656000 496205.281000 0.186000 1
153812.328000 496205.094000 0.043000 1
153811.781000 496205.656000 0.049000 1
153811.391000 496205.625000 0.367000 1
153810.922000 496205.625000 1.365000 1
153811.234000 496206.250000 0.186000 1
153810.156000 496205.438000 1.327000 1
153810.344000 496206.375000 0.542000 1
153809.719000 496205.563000 1.081000 1
153810.484000 496205.844000 1.276000 1
153810.078000 496205.750000 1.421000 1
153809.641000 496205.906000 1.170000 1
153809.844000 496206.625000 0.887000 1
153810.000000 496206.031000 1.206000 1
153809.531000 496206.281000 1.398000 1
153810.781000 496206.188000 0.698000 1
153810.438000 496207.500000 0.590000 1
153811.547000 496206.563000 1.259000 1
153810.688000 496206.500000 0.622000 1
153810.500000 496207.250000 1.237000 1
153811.297000 496207.531000 1.212000 1
153811.453000 496206.906000 1.374000 1
153810.594000 496206.906000 1.118000 1
153811.375000 496207.188000 1.215000 1
153812.344000 496206.531000 -0.025000 1
153812.641000 496207.000000 0.435000 1
153812.500000 496207.563000 0.086000 1
153811.984000 496206.406000 0.067000 1
153812.563000 496207.313000 0.270000 1
153811.969000 496207.906000 0.392000 1
153812.063000 496207.563000 0.350000 1
153812.141000 496207.281000 0.415000 1
153811.703000 496207.500000 0.345000 1
153811.188000 496207.938000 0.053000 1
153811.906000 496206.750000 0.130000 1
153811.578000 496208.000000 -0.453000 1
153811.531000 496206.594000 -0.219000 1
153810.906000 496207.500000 -0.248000 1
153811.281000 496207.563000 -0.210000 1
153810.969000 496207.250000 -1.519000 1
153811.484000 496206.813000 -0.873000 1
153811.391000 496205.625000 -1.315000 1
153811.203000 496206.375000 -2.527000 1
153811.266000 496206.125000 -2.164000 1
153810.344000 496206.438000 -2.619000 1
153810.766000 496206.250000 -2.455000 1
153810.844000 496205.938000 -2.537000 1
153810.094000 496205.688000 -2.457000 1
153809.500000 496204.625000 -2.074000 1
153809.438000 496204.906000 -2.313000 1
153808.953000 496205.406000 -2.614000 1
153808.125000 496205.563000 -2.261000 1
153807.828000 496204.938000 -1.650000 1
153809.094000 496204.875000 -2.025000 1
153809.188000 496204.500000 -2.105000 1
153808.313000 496204.844000 -2.323000 1
153807.906000 496204.594000 -1.746000 1
153808.750000 496204.656000 -2.177000 1
153808.375000 496204.594000 -2.005000 1
153807.672000 496204.250000 -1.440000 1
153807.828000 496203.625000 -1.312000 1
153807.734000 496203.938000 -1.263000 1
153808.688000 496203.406000 -0.972000 1
153808.156000 496203.656000 -1.390000 1
153807.969000 496204.375000 -1.177000 1
153808.578000 496203.781000 -1.011000 1
153808.906000 496204.031000 -0.208000 1
153809.203000 496204.406000 -0.821000 1
153808.656000 496204.969000 -0.519000 1
153809.781000 496205.344000 0.006000 1
153810.188000 496205.313000 -0.751000 1
153810.109000 496205.625000 -0.971000 1
153809.375000 496206.875000 -0.687000 1
153809.625000 496205.938000 -0.397000 1
153809.984000 496206.125000 -0.183000 1
153808.438000 496205.844000 0.586000 1
153808.891000 496205.594000 0.160000 1
153809.125000 496206.063000 0.225000 1
153808.266000 496206.500000 -1.222000 1
153807.906000 496206.406000 -1.091000 1
153809.406000 496206.750000 0.552000 1
153808.750000 496207.531000 0.841000 1
153808.359000 496206.094000 0.079000 1
153808.719000 496206.250000 0.148000 1
153808.625000 496206.625000 0.530000 1
153808.453000 496207.281000 0.308000 1
153808.094000 496207.125000 -1.383000 1
153808.750000 496207.531000 -0.703000 1
153808.406000 496207.469000 -0.463000 1
153807.969000 496207.625000 -0.412000 1
153807.875000 496207.969000 -0.498000 1
153808.156000 496208.438000 -0.733000 1
153808.313000 496207.844000 -0.297000 1
153808.594000 496208.094000 0.624000 1
153808.516000 496208.438000 0.659000 1
153808.906000 496208.656000 -0.015000 1
153808.750000 496209.281000 -0.161000 1
153808.125000 496209.938000 -0.257000 1
153807.469000 496209.563000 -0.640000 1
153806.688000 496209.313000 -1.039000 1
153806.188000 496208.469000 -1.205000 1
153805.688000 496209.031000 -1.767000 1
153805.844000 496209.813000 -1.450000 1
153805.359000 496210.313000 -2.031000 1
153805.891000 496211.094000 -2.106000 1
153806.766000 496210.813000 -2.322000 1
153806.969000 496211.469000 -2.634000 1
153807.531000 496212.219000 -2.301000 1
153807.594000 496212.000000 -1.686000 1
153807.438000 496211.219000 -1.637000 1
153807.750000 496211.406000 -1.297000 1
153807.141000 496212.375000 -2.520000 1
153805.156000 496211.031000 -1.533000 1
153805.984000 496210.719000 -2.091000 1
153805.266000 496210.625000 -2.002000 1
153806.094000 496210.281000 -0.968000 1
153806.406000 496210.406000 -0.525000 1
153806.656000 496211.219000 -0.080000 1
153807.547000 496210.813000 -0.111000 1
153807.750000 496211.375000 0.127000 1
153805.797000 496211.469000 -0.098000 1
153805.563000 496212.344000 -0.512000 1
153804.703000 496212.781000 -0.718000 1
153804.063000 496212.313000 -0.995000 1
153804.109000 496212.125000 -1.974000 1
153804.203000 496213.094000 -2.140000 1
153804.422000 496213.875000 -2.020000 1
153805.141000 496213.969000 -2.383000 1
153805.750000 496214.750000 -2.481000 1
153805.547000 496215.500000 -1.998000 1
153806.234000 496215.875000 -1.471000 1
153806.094000 496216.375000 -2.239000 1
153806.984000 496216.125000 -2.498000 1
153806.234000 496215.875000 -3.104000 1
153807.391000 496216.063000 -1.617000 1
153807.672000 496216.719000 -2.403000 1
153808.531000 496216.625000 -2.541000 1
153809.344000 496216.594000 -2.118000 1
153810.031000 496217.063000 -2.108000 1
153809.891000 496217.625000 -2.753000 1
153810.078000 496218.219000 -3.446000 1
153809.422000 496217.750000 -3.508000 1
153809.766000 496218.125000 -3.472000 1
153810.031000 496218.406000 -2.391000 1
153809.203000 496218.625000 -2.535000 1
153808.391000 496218.719000 -2.560000 1
153808.578000 496219.531000 -2.250000 1
153808.750000 496220.344000 -2.007000 1
153809.078000 496220.719000 -1.950000 1
153808.031000 496218.594000 -2.806000 1
153808.672000 496219.156000 -2.335000 1
153808.750000 496218.875000 -2.255000 1
153808.844000 496218.531000 -2.385000 1
153809.531000 496219.000000 -2.053000 1
153809.609000 496218.688000 -2.262000 1
153810.328000 496218.688000 -2.237000 1
153809.813000 496217.938000 -2.592000 1
153810.203000 496217.750000 -2.336000 1
153810.281000 496217.469000 -2.352000 1
153809.938000 496217.406000 -2.104000 1
153809.141000 496215.813000 -2.050000 1
153809.625000 496215.531000 -2.440000 1
153809.297000 496215.219000 -1.815000 1
153808.984000 496214.875000 -1.198000 1
153808.734000 496214.094000 -0.931000 1
153808.516000 496213.438000 -0.271000 1
153808.234000 496212.844000 0.381000 1
153807.672000 496213.438000 0.674000 1
153807.000000 496212.906000 0.372000 1
153806.469000 496213.438000 0.733000 1
153805.938000 496214.000000 0.713000 1
153805.063000 496214.281000 1.056000 1
153804.859000 496213.563000 1.116000 1
153804.813000 496213.719000 0.253000 1
153804.109000 496213.469000 -0.180000 1
153803.625000 496213.969000 -0.846000 1
153803.766000 496214.781000 -0.298000 1
153804.219000 496214.688000 0.509000 1
153804.031000 496215.375000 0.726000 1
153804.469000 496215.063000 0.605000 1
153804.109000 496215.063000 0.747000 1
153803.109000 496214.469000 -0.719000 1
153803.875000 496214.375000 -0.703000 1
153803.547000 496214.281000 -0.902000 1
153803.328000 496213.594000 -0.166000 1
153803.141000 496213.094000 -0.190000 1
153804.047000 496213.656000 -0.883000 1
153803.703000 496213.688000 -0.605000 1
153803.766000 496213.438000 -0.189000 1
153804.328000 496214.250000 0.075000 1
153804.391000 496213.969000 0.259000 1
153805.219000 496214.969000 0.896000 1
153804.891000 496214.938000 0.923000 1
153804.641000 496214.406000 0.584000 1
153804.703000 496214.156000 0.934000 1
153805.328000 496214.563000 0.485000 1
153805.234000 496213.625000 0.943000 1
153805.391000 496214.281000 0.864000 1
153805.469000 496213.969000 0.936000 1
153805.844000 496214.313000 0.753000 1
