154261.391000 496678.469000 -1.912000 2
154261.219000 496677.813000 -1.806000 2
154261.563000 496677.469000 -1.580000 2
154261.078000 496677.250000 -0.924000 2
154260.266000 496677.313000 -0.344000 2
154260.438000 496676.375000 -0.621000 2
154260.313000 496675.875000 -1.432000 2
154261.047000 496675.375000 -1.018000 2
154261.563000 496676.125000 -0.840000 2
154260.563000 496675.188000 -0.614000 2
154261.484000 496675.813000 -0.985000 2
154261.406000 496675.500000 -0.814000 2
154261.328000 496675.188000 -1.070000 2
154261.125000 496675.688000 -0.966000 2
154260.547000 496675.094000 -1.784000 2
154260.422000 496674.594000 -2.527000 2
154260.906000 496674.813000 -3.356000 2
154260.703000 496675.750000 -3.398000 2
154259.938000 496675.969000 -3.403000 2
154259.047000 496675.563000 -3.299000 2
154258.172000 496675.281000 -3.270000 2
154258.438000 496674.688000 -2.801000 2
154257.938000 496674.281000 -3.343000 2
154257.203000 496674.469000 -3.468000 2
154256.563000 496675.000000 -3.003000 2
154256.063000 496674.344000 -3.025000 2
154256.219000 496673.625000 -2.870000 2
154255.719000 496672.938000 -2.565000 2
154255.484000 496673.781000 -2.168000 2
154256.000000 496674.063000 -1.577000 2
154256.859000 496674.500000 -1.336000 2
154257.484000 496673.844000 -1.593000 2
154258.031000 496674.656000 -1.698000 2
154258.703000 496674.188000 -1.192000 2
154259.344000 496673.594000 -1.558000 2
154258.469000 496673.250000 -1.821000 2
154257.953000 496672.719000 -1.390000 2
154257.531000 496672.719000 -1.835000 2
154257.391000 496672.125000 -2.268000 2
154257.516000 496672.625000 -3.098000 2
154258.141000 496671.906000 -3.301000 2
154258.625000 496672.219000 -2.519000 2
154257.641000 496671.469000 -3.274000 2
154258.563000 496671.938000 -2.817000 2
154258.500000 496671.719000 -3.324000 2
154257.719000 496671.813000 -3.319000 2
154256.766000 496672.750000 -3.198000 2
154257.359000 496672.000000 -3.280000 2
154257.063000 496672.156000 -3.217000 2
154257.797000 496672.094000 -3.278000 2
154257.313000 496673.188000 -3.266000 2
154257.875000 496672.438000 -3.254000 2
154257.234000 496672.875000 -3.288000 2
154257.594000 496672.938000 -3.031000 2
154257.141000 496672.500000 -3.097000 2
154257.438000 496672.313000 -3.182000 2
154258.188000 496672.094000 -2.641000 2
154258.594000 496673.750000 -2.427000 2
154258.031000 496673.031000 -1.211000 2
154258.750000 496672.688000 -1.424000 2
154259.422000 496672.281000 -1.533000 2
154259.969000 496672.813000 -1.843000 2
154260.422000 496672.875000 -2.024000 2
154259.891000 496672.500000 -1.835000 2
154259.000000 496672.219000 -1.419000 2
154260.031000 496673.094000 -1.560000 2
154260.109000 496673.406000 -1.403000 2
154258.828000 496673.031000 -1.348000 2
154259.172000 496672.875000 -1.434000 2
154259.578000 496672.938000 -1.666000 2
154258.938000 496673.469000 -1.981000 2
154259.734000 496673.531000 -1.249000 2
154259.656000 496673.250000 -1.485000 2
154259.250000 496673.188000 -1.374000 2
154258.922000 496673.375000 -1.488000 2
154259.016000 496673.781000 -1.907000 2
154259.500000 496674.219000 -1.314000 2
154259.406000 496673.844000 -1.253000 2
154259.234000 496674.625000 -1.085000 2
154258.859000 496674.813000 -0.986000 2
154259.047000 496673.906000 -1.003000 2
154259.141000 496674.281000 -1.055000 2
154258.625000 496673.844000 -1.376000 2
154257.859000 496675.406000 -1.202000 2
154258.422000 496674.656000 -0.967000 2
154257.797000 496675.125000 -1.638000 2
154258.109000 496673.344000 -1.061000 2
154257.594000 496672.938000 -1.480000 2
154258.281000 496674.031000 -1.244000 2
154258.188000 496673.688000 -1.206000 2
154257.906000 496674.188000 -1.054000 2
154257.672000 496673.250000 -1.353000 2
154257.313000 496673.219000 -1.697000 2
154257.828000 496673.875000 -1.129000 2
154257.750000 496673.563000 -1.183000 2
154257.391000 496673.500000 -1.446000 2
154257.125000 496674.188000 -2.043000 2
154257.641000 496674.500000 -1.497000 2
154257.250000 496674.719000 -1.169000 2
154256.938000 496674.813000 -1.403000 2
154256.266000 496675.125000 -1.857000 2
154256.484000 496674.656000 -1.305000 2
154256.156000 496674.719000 -1.435000 2
154256.406000 496674.344000 -1.323000 2
154256.063000 496674.344000 -1.374000 2
154256.313000 496674.031000 -1.551000 2
154255.922000 496673.750000 -1.584000 2
154255.641000 496674.344000 -1.745000 2
154255.547000 496674.000000 -1.823000 2
154256.469000 496672.875000 -3.270000 2
154255.797000 496673.281000 -2.824000 2
154256.609000 496673.438000 -2.881000 2
154255.891000 496673.656000 -2.852000 2
154256.313000 496673.969000 -2.959000 2
154255.984000 496674.031000 -2.946000 2
154256.141000 496674.656000 -2.931000 2
154256.328000 496675.406000 -3.284000 2
154256.234000 496675.031000 -3.001000 2
154256.391000 496674.313000 -3.047000 2
154256.484000 496674.688000 -3.058000 2
154256.719000 496673.875000 -3.297000 2
154257.781000 496673.656000 -3.444000 2
154257.859000 496674.000000 -3.324000 2
154258.672000 496674.063000 -2.368000 2
154258.766000 496674.438000 -2.479000 2
154257.813000 496675.156000 -3.286000 2
154258.094000 496674.938000 -3.200000 2
154258.891000 496674.906000 -3.122000 2
154259.313000 496676.594000 -3.394000 2
154259.391000 496676.906000 -3.372000 2
154260.250000 496677.219000 -3.288000 2
154259.422000 496675.375000 -3.329000 2
154259.219000 496676.250000 -3.362000 2
154259.672000 496676.406000 -3.412000 2
154259.516000 496675.719000 -3.400000 2
154259.594000 496676.094000 -3.398000 2
154260.234000 496675.563000 -3.347000 2
154260.625000 496675.406000 -3.387000 2
154259.500000 496675.688000 -1.289000 2
154258.859000 496676.375000 -1.106000 2
154259.094000 496677.313000 -0.946000 2
154258.344000 496677.313000 -0.831000 2
154259.172000 496677.625000 -0.786000 2
154258.250000 496676.938000 -0.700000 2
154258.641000 496677.125000 -0.787000 2
154258.188000 496676.719000 -1.106000 2
154258.563000 496676.844000 -0.907000 2
154258.484000 496676.500000 -0.913000 2
154259.266000 496676.406000 -0.725000 2
154258.766000 496676.000000 -1.067000 2
154259.203000 496676.156000 -1.205000 2
154259.563000 496675.969000 -1.062000 2
154260.266000 496675.656000 -1.897000 2
154259.922000 496675.875000 -1.367000 2
154261.203000 496676.031000 -0.992000 2
154260.656000 496675.563000 -0.714000 2
154260.734000 496675.875000 -0.623000 2
154260.047000 496676.406000 -0.850000 2
154260.813000 496676.188000 -0.603000 2
154260.344000 496676.000000 -0.488000 2
154259.422000 496677.031000 -0.605000 2
154259.500000 496677.375000 -0.561000 2
154259.563000 496677.625000 -0.178000 2
154259.766000 496676.781000 -0.164000 2
154260.109000 496676.688000 -0.539000 2
154260.016000 496677.750000 -0.073000 2
154259.859000 496677.188000 -0.513000 2
154259.938000 496677.469000 -0.350000 2
154260.344000 496677.594000 -0.147000 2
154260.203000 496677.031000 -0.679000 2
154261.281000 496676.375000 -0.859000 2
154260.922000 496676.656000 -1.256000 2
154260.672000 496677.344000 -0.391000 2
154260.984000 496676.875000 -0.769000 2
154261.406000 496676.813000 -1.554000 2
154261.297000 496678.125000 -1.800000 2
154260.984000 496678.531000 -1.569000 2
154260.813000 496677.875000 -1.494000 2
154260.906000 496678.219000 -1.660000 2
154260.406000 496677.844000 -1.342000 2
154260.141000 496678.250000 -1.107000 2
154259.266000 496679.594000 -1.531000 2
154258.969000 496679.813000 -1.509000 2
154259.172000 496679.250000 -1.490000 2
154257.422000 496679.781000 -1.603000 2
154256.719000 496680.094000 -1.087000 2
154256.250000 496679.969000 -0.821000 2
154255.469000 496679.594000 -1.255000 2
154254.625000 496679.406000 -0.836000 2
154254.094000 496678.594000 -1.030000 2
154253.219000 496678.250000 -1.317000 2
154253.422000 496677.594000 -1.551000 2
154252.813000 496678.250000 -1.259000 2
154253.125000 496677.875000 -1.251000 2
154253.500000 496677.906000 -1.348000 2
154253.281000 496678.469000 -1.004000 2
154253.375000 496678.844000 -1.165000 2
154253.641000 496678.469000 -0.864000 2
154253.719000 496678.781000 -0.856000 2
154253.906000 496679.531000 -1.314000 2
154254.453000 496678.688000 -0.625000 2
154254.156000 496678.875000 -0.645000 2
154254.516000 496678.969000 -0.281000 2
154254.234000 496679.188000 -0.592000 2
154255.547000 496679.938000 -1.149000 2
154256.344000 496680.344000 -1.095000 2
154256.938000 496679.625000 -1.494000 2
154257.031000 496679.969000 -1.449000 2
154258.203000 496679.844000 -1.667000 2
154257.734000 496679.688000 -1.642000 2
154257.594000 496679.125000 -1.890000 2
154257.656000 496679.375000 -1.737000 2
154258.109000 496679.469000 -1.648000 2
154259.328000 496678.250000 -0.756000 2
154258.406000 496679.313000 -1.267000 2
154257.828000 496678.344000 -0.871000 2
154257.516000 496678.844000 -0.405000 2
154259.266000 496677.969000 -0.885000 2
154258.813000 496677.813000 -0.688000 2
154259.094000 496678.969000 -1.701000 2
154258.344000 496679.094000 -1.683000 2
154257.953000 496678.813000 -1.504000 2
154258.266000 496678.719000 -1.648000 2
154259.000000 496678.594000 -1.391000 2
154258.703000 496678.750000 -1.232000 2
154258.438000 496677.688000 -0.986000 2
154258.156000 496678.344000 -1.499000 2
154258.109000 496678.094000 -1.788000 2
154256.844000 496677.469000 -2.001000 2
154255.984000 496677.125000 -1.280000 2
154257.438000 496678.531000 -0.698000 2
154257.234000 496677.688000 -1.422000 2
154257.359000 496678.156000 -0.605000 2
154257.313000 496678.000000 -1.299000 2
154256.453000 496677.656000 -1.416000 2
154256.328000 496678.531000 -1.465000 2
154257.016000 496678.156000 -0.447000 2
154256.516000 496677.875000 -0.974000 2
154255.922000 496679.813000 -0.490000 2
154257.109000 496678.500000 -0.299000 2
154255.828000 496679.438000 -0.342000 2
154256.609000 496679.688000 -0.631000 2
154256.641000 496678.406000 -0.418000 2
154256.734000 496678.781000 -0.605000 2
154256.531000 496679.344000 -0.613000 2
154256.813000 496679.094000 -0.459000 2
154254.984000 496679.156000 -1.019000 2
154256.125000 496677.750000 -0.879000 2
154256.219000 496678.094000 -1.094000 2
154254.859000 496678.688000 -0.327000 2
154256.000000 496678.906000 -0.668000 2
154255.672000 496678.813000 -0.505000 2
154255.703000 496677.719000 -1.345000 2
154255.219000 496678.594000 -1.155000 2
154254.781000 496678.375000 -0.607000 2
154255.531000 496678.219000 -0.841000 2
154254.703000 496678.063000 -0.655000 2
154255.375000 496677.594000 -0.884000 2
154255.469000 496677.969000 -1.107000 2
154255.125000 496678.188000 -0.763000 2
154253.922000 496677.906000 -0.998000 2
154255.313000 496677.344000 -1.296000 2
154255.141000 496676.688000 -1.172000 2
154255.219000 496677.000000 -1.127000 2
154254.625000 496677.750000 -0.693000 2
154254.969000 496677.625000 -1.028000 2
154254.219000 496677.750000 -0.873000 2
154254.891000 496677.313000 -1.248000 2
154254.141000 496677.469000 -1.184000 2
154254.750000 496676.719000 -1.548000 2
154254.578000 496676.031000 -1.585000 2
154253.766000 496677.313000 -1.403000 2
154254.656000 496676.375000 -1.641000 2
154254.422000 496676.938000 -1.758000 2
154254.188000 496675.969000 -1.669000 2
154253.688000 496676.938000 -1.154000 2
154254.344000 496676.594000 -1.731000 2
154254.250000 496676.219000 -1.399000 2
154253.984000 496676.844000 -1.332000 2
154253.828000 496676.156000 -1.407000 2
154253.609000 496676.656000 -1.451000 2
154253.547000 496676.375000 -1.810000 2
154253.344000 496677.219000 -1.373000 2
154251.609000 496676.500000 -1.834000 2
154253.734000 496683.219000 -1.996000 3
154253.828000 496682.313000 -1.776000 3
154254.141000 496683.563000 -1.370000 3
154254.750000 496682.906000 -1.486000 3
154255.500000 496682.875000 -1.717000 3
154256.000000 496683.219000 -1.707000 3
154256.750000 496683.094000 -1.739000 3
154256.984000 496684.063000 -1.776000 3
154257.453000 496684.781000 -1.592000 3
154258.078000 496685.531000 -1.565000 3
154258.906000 496685.719000 -1.703000 3
154258.375000 496685.344000 -1.854000 3
154258.141000 496685.813000 -1.478000 3
154257.313000 496685.406000 -1.612000 3
154257.000000 496685.719000 -1.868000 3
154257.547000 496685.125000 -1.653000 3
154255.281000 496683.375000 -1.626000 3
154255.109000 496682.688000 -1.518000 3
154254.328000 496682.688000 -1.847000 3
154253.797000 496683.469000 -1.520000 3
154261.375000 496663.281000 -1.389000 4
154261.547000 496663.938000 -1.280000 4
154262.141000 496664.563000 -0.948000 4
154262.828000 496664.000000 -0.495000 4
154263.563000 496663.938000 0.099000 4
154263.359000 496664.844000 -0.076000 4
154263.906000 496665.313000 -0.215000 4
154263.266000 496665.750000 -0.805000 4
154262.813000 496665.594000 -0.983000 4
154262.359000 496665.438000 -0.463000 4
154262.891000 496665.938000 -0.992000 4
154264.781000 496665.594000 -0.199000 4
154265.438000 496665.188000 -0.565000 4
154265.891000 496665.563000 0.110000 4
154266.625000 496665.438000 -0.533000 4
154267.234000 496664.688000 -0.696000 4
154268.016000 496664.969000 -1.095000 4
154268.391000 496664.969000 -0.761000 4
154268.609000 496664.063000 -0.545000 4
154268.000000 496663.375000 -0.910000 4
154267.484000 496662.844000 -0.477000 4
154266.656000 496662.375000 -0.391000 4
154266.078000 496661.594000 -0.513000 4
154265.250000 496661.219000 -0.243000 4
154264.469000 496661.344000 -0.760000 4
154263.969000 496661.031000 -1.524000 4
154263.391000 496661.719000 -1.381000 4
154263.031000 496661.875000 -1.279000 4
154263.078000 496662.000000 -0.311000 4
154263.656000 496662.781000 -0.143000 4
154264.172000 496663.156000 0.623000 4
154264.734000 496662.406000 0.372000 4
154265.563000 496662.500000 0.100000 4
154265.922000 496662.625000 0.261000 4
154266.453000 496663.125000 0.303000 4
154266.266000 496663.969000 0.162000 4
154265.609000 496664.469000 0.538000 4
154265.063000 496663.719000 0.264000 4
154265.328000 496663.313000 -0.437000 4
154265.188000 496662.750000 -0.924000 4
154264.875000 496662.938000 -0.815000 4
154264.266000 496663.531000 -1.324000 4
154265.078000 496663.781000 -1.851000 4
154264.453000 496664.281000 -1.928000 4
154265.000000 496663.469000 -1.952000 4
154263.609000 496664.156000 -1.104000 4
154264.734000 496664.031000 -1.819000 4
154263.547000 496663.906000 -1.439000 4
154262.719000 496663.531000 -1.479000 4
154263.469000 496663.594000 -1.440000 4
154264.578000 496663.406000 -1.945000 4
154263.891000 496663.719000 -1.453000 4
154265.391000 496663.594000 -0.234000 4
154264.813000 496664.344000 0.184000 4
154264.516000 496664.563000 0.200000 4
154264.188000 496664.938000 0.831000 4
154265.156000 496664.094000 0.054000 4
154264.859000 496664.563000 0.619000 4
154265.234000 496664.375000 0.339000 4
154267.031000 496663.906000 -0.074000 4
154267.688000 496663.688000 0.338000 4
154267.875000 496664.406000 0.130000 4
154265.547000 496664.188000 0.249000 4
154266.047000 496664.406000 0.349000 4
154265.984000 496664.156000 0.028000 4
154266.344000 496664.313000 0.163000 4
154265.891000 496663.781000 0.242000 4
154266.609000 496663.719000 0.607000 4
154266.172000 496663.625000 0.465000 4
154265.641000 496662.781000 0.169000 4
154265.188000 496662.781000 0.589000 4
154265.125000 496662.500000 0.395000 4
154264.984000 496663.375000 0.321000 4
154264.641000 496663.688000 0.151000 4
154264.797000 496662.688000 0.551000 4
154264.891000 496663.031000 0.496000 4
154264.375000 496662.625000 0.614000 4
154264.453000 496662.938000 0.662000 4
154264.000000 496662.469000 -0.950000 4
154264.156000 496663.094000 -0.774000 4
154264.063000 496662.719000 -0.614000 4
154263.344000 496663.063000 -0.436000 4
154262.563000 496662.906000 0.062000 4
154262.047000 496662.563000 -0.366000 4
154262.125000 496662.844000 -0.368000 4
154262.500000 496662.688000 -0.378000 4
154262.844000 496662.813000 -0.092000 4
154262.438000 496662.406000 -0.660000 4
154262.781000 496662.563000 -0.371000 4
154263.484000 496662.094000 0.059000 4
154263.156000 496662.313000 -0.022000 4
154262.703000 496662.250000 -0.573000 4
154263.453000 496662.000000 -1.123000 4
154263.203000 496661.031000 -1.245000 4
154263.313000 496661.406000 -1.518000 4
154263.672000 496661.188000 -1.467000 4
154264.719000 496660.875000 -1.559000 4
154265.344000 496660.313000 -1.528000 4
154265.016000 496662.094000 -0.994000 4
154264.688000 496662.219000 -0.468000 4
154263.844000 496661.844000 -1.193000 4
154263.891000 496662.031000 -0.622000 4
154263.719000 496661.375000 -0.532000 4
154264.094000 496661.469000 -0.140000 4
154264.938000 496661.750000 -1.048000 4
154264.016000 496661.156000 -0.287000 4
154264.609000 496661.938000 -0.639000 4
154264.406000 496661.063000 -1.265000 4
154264.547000 496661.656000 -0.869000 4
154265.375000 496660.438000 -0.483000 4
154265.094000 496660.594000 -0.560000 4
154265.469000 496660.813000 -0.710000 4
154264.813000 496661.281000 -0.076000 4
154265.141000 496660.844000 -0.054000 4
154265.516000 496662.281000 -0.707000 4
154266.188000 496662.063000 -1.282000 4
154265.328000 496661.563000 -0.412000 4
154265.422000 496661.906000 -0.596000 4
154265.547000 496661.125000 -0.541000 4
154265.641000 496661.469000 -0.479000 4
154265.719000 496661.781000 -0.336000 4
154266.000000 496661.281000 -0.617000 4
154266.391000 496662.844000 -0.013000 4
154266.266000 496662.313000 -0.845000 4
154266.969000 496663.625000 -0.329000 4
154267.266000 496663.250000 0.323000 4
154266.781000 496662.938000 0.029000 4
154266.719000 496662.656000 -0.253000 4
154267.188000 496662.938000 0.187000 4
154267.531000 496663.063000 0.198000 4
154267.313000 496662.188000 -0.414000 4
154267.047000 496662.375000 -0.248000 4
154267.375000 496662.438000 0.047000 4
154267.125000 496662.688000 -0.299000 4
154267.844000 496662.781000 -1.371000 4
154267.313000 496663.500000 -0.986000 4
154268.359000 496663.094000 -0.710000 4
154267.906000 496663.031000 -1.004000 4
154268.453000 496663.438000 -0.793000 4
154268.063000 496663.656000 -0.539000 4
154268.516000 496663.688000 -0.409000 4
154268.953000 496663.906000 -0.432000 4
154268.688000 496664.406000 -0.607000 4
154267.438000 496663.969000 -0.171000 4
154267.734000 496665.156000 -1.226000 4
154267.938000 496665.938000 -1.780000 4
154267.453000 496665.531000 -1.961000 4
154267.516000 496664.281000 -0.037000 4
154267.609000 496664.625000 -0.016000 4
154267.125000 496664.281000 -0.328000 4
154266.813000 496664.563000 -0.246000 4
154266.438000 496664.688000 -0.042000 4
154266.875000 496664.813000 -0.030000 4
154267.297000 496664.969000 -0.629000 4
154266.984000 496665.219000 -0.433000 4
154266.125000 496664.719000 0.544000 4
154266.531000 496665.031000 -0.084000 4
154265.672000 496666.156000 -0.436000 4
154266.219000 496665.125000 0.169000 4
154266.297000 496665.438000 0.301000 4
154265.969000 496665.875000 0.092000 4
154265.328000 496664.750000 0.097000 4
154265.688000 496664.719000 -0.845000 4
154265.609000 496664.469000 -1.289000 4
154265.813000 496665.250000 -0.127000 4
154265.766000 496665.063000 -0.944000 4
154265.359000 496664.906000 -0.768000 4
154264.641000 496665.063000 -0.851000 4
154265.594000 496665.813000 -0.255000 4
154265.500000 496665.469000 -0.254000 4
154265.234000 496666.063000 -0.471000 4
154265.063000 496665.344000 0.008000 4
154264.094000 496666.063000 -0.609000 4
154264.281000 496665.281000 -0.947000 4
154264.703000 496665.281000 -0.225000 4
154264.016000 496665.781000 -0.802000 4
154264.313000 496665.469000 -0.134000 4
154263.156000 496665.313000 -0.402000 4
154263.078000 496665.000000 -0.588000 4
154263.797000 496664.906000 0.283000 4
154263.422000 496665.094000 0.308000 4
154264.438000 496664.219000 0.249000 4
154264.047000 496664.406000 0.376000 4
154263.734000 496664.625000 0.091000 4
154263.813000 496663.438000 -0.024000 4
154263.891000 496663.781000 -0.040000 4
154263.641000 496664.281000 0.068000 4
154263.484000 496663.656000 -0.022000 4
154262.297000 496663.563000 -0.637000 4
154262.734000 496663.594000 0.045000 4
154263.016000 496663.500000 -0.220000 4
154262.688000 496665.156000 -0.488000 4
154263.016000 496664.719000 -0.767000 4
154262.375000 496663.875000 -0.550000 4
154262.281000 496665.094000 -0.449000 4
154262.625000 496664.875000 -0.484000 4
154262.453000 496664.156000 -0.513000 4
154262.531000 496664.500000 -0.406000 4
154262.219000 496664.844000 -0.768000 4
154262.063000 496664.219000 -0.910000 4
154261.922000 496663.656000 -1.418000 4
154261.750000 496662.969000 -1.282000 4
154261.828000 496663.281000 -1.282000 4
154261.453000 496663.594000 -1.301000 4
154266.469000 496681.844000 -1.332000 5
154267.313000 496681.875000 -1.841000 5
154267.078000 496682.656000 -1.714000 5
154268.031000 496681.813000 -1.624000 5
154268.281000 496681.250000 -1.648000 5
154268.500000 496680.438000 -1.598000 5
154269.297000 496680.656000 -1.433000 5
154269.859000 496681.406000 -1.706000 5
154269.234000 496682.000000 -2.033000 5
154270.047000 496682.156000 -2.009000 5
154270.109000 496680.656000 -1.577000 5
154270.250000 496679.875000 -1.697000 5
154270.438000 496679.000000 -1.608000 5
154270.922000 496679.406000 -1.428000 5
154270.063000 496679.125000 -1.338000 5
154269.234000 496680.406000 -1.970000 5
154268.891000 496680.688000 -2.222000 5
154268.422000 496680.125000 -1.700000 5
154268.969000 496680.969000 -1.877000 5
154268.578000 496680.813000 -1.607000 5
154267.969000 496681.531000 -1.964000 5
154267.484000 496681.344000 -1.702000 5
154267.656000 496682.031000 -1.696000 5
154266.656000 496681.000000 -1.606000 5
154266.844000 496681.719000 -1.898000 5
154266.891000 496681.938000 -1.334000 5
154262.547000 496653.625000 -0.367000 6
154263.078000 496654.344000 0.045000 6
154263.641000 496654.813000 0.690000 6
154264.125000 496655.438000 0.098000 6
154263.484000 496656.000000 0.048000 6
154263.359000 496656.875000 0.112000 6
154263.734000 496656.969000 0.135000 6
154264.516000 496656.969000 0.705000 6
154265.359000 496657.250000 0.254000 6
154265.641000 496656.781000 -0.132000 6
154266.422000 496657.063000 -0.680000 6
154266.625000 496656.156000 -0.488000 6
154266.391000 496655.219000 -0.697000 6
154266.594000 496654.500000 -1.310000 6
154267.375000 496654.594000 -0.728000 6
154267.563000 496653.719000 -0.776000 6
154267.516000 496653.531000 -1.611000 6
154266.922000 496652.781000 -1.598000 6
154266.703000 496651.906000 -1.972000 6
154267.000000 496651.500000 -1.270000 6
154267.781000 496651.813000 -0.954000 6
154267.969000 496652.531000 -1.315000 6
154268.656000 496652.125000 -1.577000 6
154268.719000 496652.406000 -1.510000 6
154268.313000 496652.375000 -1.697000 6
154268.391000 496652.688000 -1.562000 6
154268.234000 496652.000000 -1.452000 6
154268.109000 496651.563000 -0.727000 6
154267.703000 496651.469000 -1.072000 6
154267.469000 496651.969000 -1.321000 6
154267.375000 496651.563000 -1.018000 6
154267.094000 496651.875000 -1.376000 6
154267.625000 496652.531000 -1.026000 6
154266.188000 496652.875000 -1.267000 6
154265.266000 496652.500000 -1.193000 6
154264.703000 496651.750000 -1.016000 6
154264.125000 496652.281000 -1.180000 6
154263.797000 496652.500000 -1.235000 6
154264.469000 496652.063000 -1.475000 6
154265.141000 496651.969000 -1.823000 6
154264.516000 496652.313000 -1.153000 6
154265.203000 496652.219000 -1.486000 6
154264.875000 496652.438000 -1.283000 6
154265.344000 496652.813000 -0.849000 6
154265.969000 496653.563000 -0.845000 6
154266.672000 496653.344000 -0.200000 6
154266.234000 496653.063000 -0.465000 6
154265.906000 496653.281000 -1.250000 6
154265.766000 496652.719000 -1.460000 6
154267.172000 496652.188000 -1.535000 6
154266.828000 496652.375000 -1.164000 6
154266.484000 496652.563000 -1.313000 6
154268.063000 496652.969000 -1.695000 6
154268.219000 496653.563000 -1.566000 6
154268.750000 496654.094000 -1.850000 6
154269.313000 496654.781000 -2.006000 6
154270.125000 496655.031000 -2.138000 6
154270.750000 496654.469000 -1.718000 6
154270.531000 496655.094000 -1.964000 6
154269.953000 496654.344000 -1.743000 6
154269.594000 496654.219000 -1.854000 6
154269.516000 496653.906000 -2.105000 6
154269.141000 496654.094000 -1.571000 6
154267.188000 496653.844000 -2.008000 6
154267.891000 496653.625000 -1.430000 6
154267.406000 496653.094000 -0.954000 6
154268.031000 496654.219000 -0.784000 6
154268.109000 496654.469000 -0.590000 6
154267.219000 496653.938000 -0.603000 6
154267.719000 496654.375000 -0.750000 6
154267.453000 496654.906000 -0.571000 6
154267.266000 496654.125000 -1.793000 6
154265.766000 496654.469000 -1.068000 6
154266.063000 496653.938000 -0.942000 6
154266.797000 496653.813000 -0.969000 6
154266.141000 496654.188000 -0.799000 6
154267.313000 496654.344000 -1.250000 6
154266.422000 496653.844000 -1.082000 6
154266.516000 496654.250000 -1.467000 6
154265.969000 496655.250000 0.159000 6
154265.125000 496654.750000 0.141000 6
154264.547000 496654.000000 0.082000 6
154264.375000 496653.250000 0.617000 6
154264.547000 496652.438000 0.076000 6
154265.203000 496652.219000 0.305000 6
154265.375000 496652.875000 0.496000 6
154264.156000 496652.406000 -0.074000 6
154263.469000 496652.813000 -0.026000 6
154264.813000 496652.156000 0.225000 6
154263.547000 496653.094000 0.152000 6
154264.906000 496652.531000 0.261000 6
154264.250000 496652.781000 -0.195000 6
154263.625000 496653.406000 0.335000 6
154265.125000 496653.438000 0.677000 6
154263.906000 496652.938000 0.132000 6
154265.047000 496653.125000 0.455000 6
154264.625000 496652.750000 0.226000 6
154263.984000 496653.219000 0.371000 6
154264.297000 496653.000000 0.335000 6
154264.922000 496653.906000 -0.762000 6
154264.469000 496653.625000 -1.536000 6
154263.781000 496654.063000 -1.411000 6
154264.641000 496654.313000 -1.834000 6
154264.547000 496653.969000 -1.606000 6
154264.219000 496654.188000 -1.292000 6
154264.047000 496653.500000 0.666000 6
154264.594000 496654.156000 0.906000 6
154264.438000 496653.563000 0.770000 6
154264.141000 496653.875000 0.504000 6
154265.250000 496653.938000 -0.156000 6
154264.984000 496654.156000 -0.453000 6
154264.844000 496655.156000 0.797000 6
154264.922000 496655.469000 1.028000 6
154264.688000 496654.531000 0.791000 6
154265.328000 496654.219000 -0.076000 6
154265.188000 496654.938000 0.625000 6
154265.406000 496654.531000 0.206000 6
154265.266000 496655.281000 0.513000 6
154265.781000 496654.531000 0.396000 6
154265.469000 496654.813000 0.501000 6
154265.375000 496655.688000 0.220000 6
154264.734000 496656.219000 -0.112000 6
154265.563000 496655.156000 0.454000 6
154265.641000 496655.500000 0.359000 6
154266.031000 496655.531000 0.431000 6
154265.703000 496655.719000 -0.971000 6
154267.031000 496654.750000 -0.762000 6
154265.844000 496654.813000 -1.048000 6
154266.656000 496654.781000 -0.887000 6
154266.438000 496655.406000 -0.039000 6
154266.891000 496655.719000 -0.760000 6
154267.047000 496656.313000 -0.384000 6
154266.969000 496656.031000 -0.593000 6
154266.547000 496655.813000 -0.440000 6
154266.703000 496656.500000 -0.581000 6
154266.797000 496656.813000 -0.513000 6
154265.063000 496656.000000 -0.145000 6
154265.172000 496656.469000 -0.916000 6
154266.250000 496656.406000 -0.774000 6
154266.328000 496656.719000 -0.579000 6
154265.844000 496656.281000 -0.532000 6
154266.016000 496657.000000 -0.628000 6
154265.906000 496656.563000 -0.238000 6
154265.719000 496657.094000 0.038000 6
154265.109000 496656.250000 0.367000 6
154265.047000 496657.469000 0.292000 6
154265.188000 496656.531000 0.466000 6
154264.797000 496656.500000 0.089000 6
154265.281000 496656.875000 0.500000 6
154264.953000 496657.063000 0.629000 6
154264.859000 496656.750000 0.724000 6
154264.422000 496656.625000 0.661000 6
154264.219000 496657.125000 0.751000 6
154264.141000 496656.781000 0.750000 6
154264.078000 496656.531000 0.262000 6
154263.656000 496656.656000 0.101000 6
154263.266000 496656.500000 0.216000 6
154263.172000 496656.188000 0.173000 6
154263.563000 496656.281000 0.198000 6
154264.781000 496654.938000 0.315000 6
154263.984000 496656.188000 0.448000 6
154263.422000 496655.719000 -0.249000 6
154263.938000 496656.000000 -0.382000 6
154264.656000 496655.906000 -0.022000 6
154264.297000 496656.094000 0.253000 6
154264.422000 496654.969000 -0.175000 6
154264.563000 496655.563000 -0.057000 6
154264.484000 496655.250000 -0.024000 6
154264.219000 496655.781000 0.124000 6
154263.328000 496655.344000 -0.081000 6
154263.828000 496655.531000 0.279000 6
154264.047000 496655.094000 0.239000 6
154263.703000 496653.781000 0.221000 6
154263.531000 496654.375000 -0.677000 6
154263.234000 496654.938000 0.501000 6
154263.578000 496654.563000 0.202000 6
154263.156000 496654.625000 0.371000 6
154263.344000 496653.594000 0.098000 6
154263.219000 496653.094000 -0.684000 6
154263.281000 496653.344000 -0.366000 6
154262.688000 496654.219000 -0.040000 6
154262.938000 496653.781000 -0.459000 6
154262.844000 496653.406000 -0.404000 6
154262.609000 496653.938000 -0.270000 6
154270.484000 496685.344000 -1.889000 7
154271.047000 496686.156000 -1.881000 7
154271.734000 496685.844000 -1.431000 7
154272.328000 496685.063000 -1.623000 7
154272.813000 496685.438000 -1.526000 7
154272.250000 496684.750000 -1.730000 7
154271.688000 496684.000000 -1.480000 7
154270.875000 496683.688000 -1.809000 7
154271.453000 496683.063000 -1.971000 7
154272.266000 496683.250000 -2.060000 7
154271.766000 496682.813000 -1.817000 7
154272.313000 496683.438000 -1.508000 7
154271.516000 496683.313000 -1.498000 7
154271.906000 496683.375000 -1.344000 7
154271.250000 496683.875000 -1.770000 7
154271.609000 496685.313000 -2.130000 7
154271.938000 496685.000000 -1.577000 7
154272.391000 496685.313000 -1.184000 7
154272.484000 496685.688000 -1.421000 7
154272.031000 496685.344000 -1.526000 7
154271.672000 496685.563000 -1.730000 7
154270.547000 496685.594000 -1.508000 7
154270.859000 496685.438000 -1.763000 7
154274.594000 496697.250000 -1.782000 8
154275.328000 496697.000000 -1.382000 8
154275.828000 496697.469000 -1.669000 8
154276.531000 496697.469000 -2.038000 8
154277.031000 496697.750000 -1.321000 8
154277.203000 496698.406000 -1.461000 8
154276.438000 496698.594000 -1.576000 8
154276.703000 496698.125000 -1.831000 8
154276.906000 496697.188000 -1.867000 8
154277.063000 496696.313000 -1.416000 8
154277.625000 496695.500000 -1.531000 8
154278.219000 496696.281000 -1.400000 8
154278.781000 496695.719000 -1.822000 8
154279.203000 496695.844000 -1.745000 8
154278.844000 496696.000000 -1.535000 8
154278.531000 496696.094000 -1.554000 8
154278.172000 496696.094000 -2.079000 8
154278.453000 496695.781000 -1.582000 8
154277.219000 496695.469000 -2.293000 8
154276.766000 496695.094000 -1.960000 8
154276.563000 496694.344000 -1.632000 8
154277.141000 496693.594000 -1.888000 8
154277.000000 496693.000000 -2.149000 8
154276.734000 496693.469000 -2.295000 8
154277.578000 496693.688000 -1.854000 8
154277.203000 496693.813000 -1.358000 8
154276.781000 496693.719000 -1.682000 8
154276.859000 496694.000000 -1.481000 8
154276.016000 496695.406000 -1.769000 8
154275.453000 496694.656000 -1.950000 8
154275.156000 496694.781000 -1.504000 8
154275.500000 496694.875000 -1.317000 8
154278.375000 496695.500000 -1.861000 8
154277.984000 496695.344000 -1.943000 8
154277.281000 496695.688000 -1.864000 8
154277.359000 496696.000000 -1.565000 8
154277.422000 496696.250000 -1.392000 8
154276.250000 496697.906000 -1.367000 8
154275.578000 496698.063000 -1.525000 8
154274.766000 496697.938000 -1.887000 8
154275.109000 496697.688000 -1.899000 8
154271.141000 496662.031000 -1.916000 9
154271.953000 496662.313000 -2.237000 9
154272.016000 496662.563000 -1.631000 9
154272.359000 496662.344000 -2.272000 9
154273.234000 496662.563000 -2.359000 9
154273.438000 496662.125000 -1.495000 9
154273.203000 496661.188000 -1.738000 9
154272.719000 496660.469000 -1.979000 9
154273.328000 496660.094000 -1.978000 9
154272.781000 496660.781000 -1.712000 9
154274.203000 496662.000000 -1.800000 9
154274.953000 496661.969000 -1.934000 9
154274.625000 496661.844000 -2.264000 9
154274.156000 496661.781000 -2.270000 9
154274.688000 496662.094000 -1.961000 9
154273.844000 496662.094000 -2.072000 9
154273.391000 496661.969000 -2.249000 9
154271.656000 496662.438000 -1.723000 9
154271.516000 496661.906000 -2.184000 9
154271.578000 496662.125000 -1.815000 9
154272.359000 496652.813000 -1.614000 10
154272.828000 496653.469000 -2.169000 10
154273.250000 496653.531000 -2.057000 10
154274.125000 496653.906000 -2.027000 10
154274.359000 496654.813000 -1.727000 10
154274.531000 496655.500000 -1.813000 10
154273.813000 496655.813000 -1.780000 10
154274.438000 496655.125000 -1.565000 10
154274.609000 496654.500000 -1.995000 10
154272.984000 496652.469000 -1.693000 10
154272.750000 496651.531000 -1.904000 10
154273.391000 496650.969000 -2.011000 10
154272.875000 496650.531000 -2.023000 10
154273.313000 496650.656000 -2.280000 10
154273.703000 496650.906000 -1.954000 10
154273.469000 496651.250000 -1.794000 10
154272.953000 496650.844000 -1.779000 10
154273.203000 496651.844000 -1.911000 10
154273.063000 496652.781000 -1.520000 10
154272.516000 496653.438000 -1.511000 10
154282.047000 496679.063000 -1.077000 11
154282.203000 496679.719000 -0.886000 11
154282.531000 496679.500000 -0.822000 11
154282.766000 496678.844000 -0.110000 11
154283.406000 496678.094000 0.021000 11
154283.938000 496678.938000 0.039000 11
154284.688000 496678.719000 -0.160000 11
154284.938000 496679.656000 0.042000 11
154285.656000 496679.594000 -0.588000 11
154286.328000 496678.969000 -0.204000 11
154286.656000 496678.594000 -1.008000 11
154285.781000 496678.375000 -0.909000 11
154285.938000 496677.438000 -0.707000 11
154285.219000 496677.844000 -0.225000 11
154284.438000 496677.719000 -0.158000 11
154284.250000 496676.938000 0.315000 11
154284.125000 496676.469000 -0.528000 11
154284.984000 496676.875000 -0.562000 11
154285.203000 496676.063000 -0.919000 11
154284.594000 496675.344000 -1.112000 11
154283.813000 496675.188000 -0.570000 11
154282.984000 496675.125000 -0.969000 11
154282.391000 496675.813000 -1.124000 11
154282.922000 496676.125000 -1.705000 11
154283.703000 496676.375000 -2.006000 11
154283.625000 496676.063000 -1.895000 11
154283.344000 496676.563000 -1.493000 11
154283.047000 496676.625000 -0.788000 11
154283.516000 496677.219000 -1.341000 11
154283.281000 496676.313000 -1.931000 11
154282.563000 496676.531000 -1.234000 11
154282.469000 496676.125000 -1.064000 11
154283.172000 496675.844000 -1.150000 11
154283.078000 496675.469000 -0.924000 11
154283.406000 496675.188000 -1.036000 11
154283.938000 496675.688000 -1.391000 11
154284.313000 496675.531000 -0.865000 11
154286.063000 496676.188000 -0.517000 11
154286.125000 496676.469000 -0.234000 11
154285.938000 496675.688000 -1.392000 11
154286.391000 496676.281000 -1.833000 11
154286.547000 496675.250000 -1.558000 11
154286.500000 496675.031000 -2.197000 11
154285.406000 496675.313000 -1.797000 11
154286.141000 496675.250000 -1.598000 11
154285.875000 496675.438000 -1.812000 11
154286.031000 496676.063000 -1.643000 11
154286.219000 496675.563000 -1.429000 11
154285.063000 496675.469000 -1.265000 11
154285.531000 496675.781000 -0.961000 11
154285.688000 496676.406000 -0.533000 11
154284.938000 496676.719000 -1.278000 11
154285.297000 496676.406000 -0.736000 11
154284.000000 496675.969000 -1.305000 11
154284.344000 496675.719000 -0.175000 11
154284.797000 496676.125000 -0.135000 11
154283.953000 496675.750000 -0.186000 11
154283.391000 496676.719000 -0.581000 11
154283.609000 496676.031000 -0.162000 11
154284.469000 496676.188000 -0.853000 11
154284.875000 496676.469000 -0.007000 11
154283.688000 496676.313000 0.231000 11
154284.500000 496676.313000 0.339000 11
154283.766000 496676.656000 0.082000 11
154284.172000 496676.656000 0.142000 11
154283.875000 496677.031000 -0.145000 11
154285.422000 496676.906000 -0.226000 11
154285.594000 496677.594000 -0.285000 11
154286.313000 496677.188000 -0.540000 11
154286.000000 496677.688000 -0.294000 11
154285.375000 496678.469000 -1.751000 11
154284.906000 496677.938000 -1.407000 11
154285.156000 496678.969000 -1.271000 11
154284.516000 496679.594000 -1.574000 11
154283.813000 496679.688000 -1.162000 11
154284.328000 496680.469000 -1.095000 11
154284.828000 496680.813000 -0.956000 11
154285.594000 496680.656000 -1.510000 11
154286.172000 496679.875000 -1.640000 11
154286.250000 496680.219000 -1.753000 11
154285.797000 496680.094000 -1.638000 11
154285.516000 496680.375000 -1.902000 11
154285.688000 496681.031000 -1.641000 11
154285.875000 496680.406000 -1.564000 11
154285.266000 496681.000000 -1.429000 11
154284.391000 496680.750000 -0.846000 11
154284.063000 496680.688000 -1.174000 11
154283.938000 496680.188000 -0.394000 11
154283.875000 496679.938000 -0.631000 11
154284.469000 496679.406000 -2.331000 11
154284.344000 496678.938000 -3.199000 11
154284.422000 496679.219000 -2.958000 11
154284.156000 496679.781000 -0.978000 11
154285.016000 496680.000000 -1.716000 11
154284.578000 496679.875000 -1.161000 11
154285.094000 496678.656000 -1.432000 11
154286.078000 496677.969000 -0.191000 11
154285.734000 496678.125000 -1.342000 11
154286.766000 496677.750000 -0.863000 11
154286.484000 496677.906000 -0.935000 11
154286.578000 496678.281000 -1.136000 11
154286.906000 496678.281000 -0.404000 11
154286.172000 496678.344000 -0.277000 11
154286.766000 496679.000000 0.079000 11
154286.000000 496679.219000 -0.066000 11
154284.703000 496680.375000 -0.544000 11
154284.641000 496680.094000 -0.749000 11
154285.719000 496679.844000 -0.299000 11
154285.047000 496680.094000 -0.502000 11
154284.969000 496678.188000 -0.877000 11
154285.297000 496678.125000 0.001000 11
154284.875000 496679.438000 -0.523000 11
154284.781000 496679.094000 -0.478000 11
154284.625000 496678.469000 -0.528000 11
154284.328000 496678.875000 0.386000 11
154284.266000 496678.625000 0.130000 11
154284.031000 496679.281000 -0.118000 11
154283.547000 496678.625000 -0.766000 11
154283.953000 496677.406000 -0.348000 11
154283.656000 496677.781000 -0.731000 11
154284.172000 496678.219000 0.351000 11
154283.875000 496678.688000 -0.326000 11
154284.016000 496677.625000 0.121000 11
154282.828000 496677.594000 0.143000 11
154284.094000 496677.938000 0.152000 11
154283.250000 496677.438000 0.150000 11
154283.688000 496677.906000 0.251000 11
154283.344000 496677.781000 -0.055000 11
154282.594000 496678.125000 0.109000 11
154283.250000 496679.281000 -0.024000 11
154283.016000 496678.313000 -0.238000 11
154283.172000 496678.969000 -0.142000 11
154282.688000 496678.531000 -0.204000 11
154282.328000 496678.688000 -1.547000 11
154282.453000 496679.188000 -0.994000 11
154282.375000 496678.906000 -1.109000 11
154282.125000 496679.375000 -0.991000 11
154277.969000 496661.281000 -0.676000 12
154278.625000 496660.813000 -0.239000 12
154279.203000 496660.063000 0.057000 12
154279.391000 496659.188000 -0.352000 12
154279.594000 496658.375000 -0.842000 12
154279.438000 496657.781000 -1.593000 12
154280.047000 496657.219000 -1.116000 12
154280.266000 496656.406000 -1.639000 12
154281.031000 496656.188000 -1.179000 12
154281.859000 496656.563000 -0.774000 12
154281.688000 496657.531000 -0.712000 12
154282.438000 496657.438000 -1.266000 12
154282.781000 496657.094000 -0.518000 12
154282.938000 496656.438000 -1.078000 12
154283.484000 496656.938000 -1.608000 12
154283.797000 496656.656000 -1.805000 12
154283.859000 496656.906000 -1.573000 12
154284.000000 496657.469000 -0.927000 12
154283.781000 496658.063000 -0.616000 12
154283.188000 496658.656000 -0.237000 12
154284.016000 496659.031000 -0.523000 12
154284.156000 496659.594000 -0.134000 12
154283.578000 496660.250000 0.257000 12
154282.969000 496661.000000 0.481000 12
154283.516000 496661.750000 0.365000 12
154283.750000 496662.688000 0.565000 12
154284.375000 496663.375000 0.898000 12
154283.641000 496663.688000 0.336000 12
154283.484000 496664.656000 0.261000 12
154282.734000 496664.656000 0.322000 12
154281.859000 496664.438000 0.581000 12
154281.328000 496663.656000 0.872000 12
154281.453000 496662.813000 0.470000 12
154282.297000 496662.875000 0.784000 12
154282.859000 496662.188000 0.980000 12
154282.391000 496661.625000 1.174000 12
154281.641000 496661.844000 0.771000 12
154281.031000 496661.125000 0.991000 12
154280.781000 496660.188000 0.829000 12
154280.641000 496659.563000 0.310000 12
154280.859000 496658.719000 0.113000 12
154281.688000 496658.813000 0.416000 12
154282.219000 496659.625000 0.345000 12
154281.516000 496659.781000 -0.237000 12
154281.234000 496660.219000 -0.927000 12
154281.797000 496660.938000 -1.227000 12
154281.063000 496661.250000 -1.658000 12
154280.922000 496662.063000 -1.152000 12
154281.734000 496662.219000 -1.262000 12
154281.516000 496663.031000 -0.777000 12
154281.391000 496663.938000 -0.549000 12
154280.703000 496664.438000 -0.067000 12
154280.766000 496664.688000 0.317000 12
154281.594000 496663.344000 -0.598000 12
154281.891000 496662.813000 -0.915000 12
154282.734000 496662.938000 -0.472000 12
154282.219000 496662.625000 -1.178000 12
154281.813000 496662.563000 -1.205000 12
154281.016000 496662.406000 -1.185000 12
154281.219000 496661.906000 -1.472000 12
154282.531000 496660.906000 -0.965000 12
154282.141000 496660.594000 -0.335000 12
154282.781000 496660.250000 -0.870000 12
154282.734000 496660.094000 -1.819000 12
154282.141000 496659.344000 -1.540000 12
154281.906000 496659.656000 -2.341000 12
154281.500000 496659.750000 -1.783000 12
154281.406000 496659.406000 -1.531000 12
154281.797000 496659.250000 -2.054000 12
154282.078000 496659.063000 -1.946000 12
154282.813000 496658.906000 -2.164000 12
154283.328000 496659.250000 -1.605000 12
154283.750000 496659.656000 -2.348000 12
154284.391000 496659.031000 -2.230000 12
154284.531000 496659.594000 -1.574000 12
154285.219000 496659.094000 -1.087000 12
154285.422000 496658.125000 -1.057000 12
154286.266000 496658.375000 -1.207000 12
154286.969000 496658.313000 -1.894000 12
154287.047000 496658.594000 -1.670000 12
154286.125000 496657.844000 -1.871000 12
154285.516000 496657.094000 -1.855000 12
154284.859000 496657.656000 -2.168000 12
154284.594000 496658.031000 -2.019000 12
154285.141000 496657.000000 -2.098000 12
154285.875000 496656.875000 -1.802000 12
154286.484000 496656.344000 -2.003000 12
154287.234000 496656.250000 -2.018000 12
154286.797000 496656.063000 -2.064000 12
154286.016000 496656.125000 -1.944000 12
154286.250000 496657.063000 -1.870000 12
154286.406000 496657.656000 -1.561000 12
154286.719000 496658.906000 -1.294000 12
154286.422000 496659.000000 -1.139000 12
154286.172000 496659.750000 -1.686000 12
154286.406000 496660.656000 -1.386000 12
154286.641000 496661.594000 -1.195000 12
154287.234000 496662.281000 -1.000000 12
154286.594000 496662.781000 -1.322000 12
154285.969000 496663.500000 -1.025000 12
154285.469000 496663.313000 -0.252000 12
154284.641000 496663.219000 -0.568000 12
154284.297000 496663.125000 -1.365000 12
154284.063000 496662.156000 -1.432000 12
154283.828000 496661.219000 -1.583000 12
154283.078000 496661.469000 -2.055000 12
154282.938000 496660.906000 -2.637000 12
154282.281000 496661.125000 -3.297000 12
154282.078000 496662.031000 -3.453000 12
154282.453000 496661.844000 -3.469000 12
154281.984000 496661.688000 -3.341000 12
154281.891000 496661.281000 -3.047000 12
154281.828000 496661.031000 -3.376000 12
154282.344000 496661.406000 -3.040000 12
154282.172000 496660.688000 -2.590000 12
154282.594000 496661.156000 -2.413000 12
154282.688000 496661.531000 -2.488000 12
154283.484000 496661.594000 -2.321000 12
154283.703000 496660.719000 -2.231000 12
154284.531000 496661.094000 -1.236000 12
154284.141000 496661.219000 -0.398000 12
154284.953000 496661.281000 0.151000 12
154285.672000 496660.906000 -0.036000 12
154285.547000 496660.375000 -0.742000 12
154285.078000 496660.000000 -0.018000 12
154285.422000 496659.906000 -0.074000 12
154285.813000 496659.688000 -0.500000 12
154284.703000 496661.781000 0.468000 12
154285.203000 496662.281000 -0.137000 12
154286.031000 496662.344000 -0.559000 12
154285.547000 496661.844000 -1.195000 12
154285.656000 496662.281000 -1.611000 12
154285.938000 496661.969000 -0.439000 12
154285.422000 496661.375000 -0.186000 12
154285.313000 496660.938000 0.256000 12
154284.859000 496660.875000 0.428000 12
154285.031000 496661.563000 0.345000 12
154284.641000 496661.500000 0.335000 12
154284.469000 496660.813000 0.320000 12
154285.297000 496660.844000 -1.109000 12
154283.953000 496660.469000 -1.623000 12
154283.766000 496660.969000 -1.867000 12
154284.109000 496661.094000 -1.489000 12
154284.813000 496662.219000 -1.935000 12
154283.391000 496662.688000 -1.350000 12
154284.219000 496661.500000 -1.965000 12
154283.547000 496661.844000 -1.830000 12
154283.906000 496661.563000 -1.580000 12
154284.375000 496662.156000 -1.853000 12
154283.609000 496662.125000 -1.629000 12
154283.984000 496661.844000 -1.391000 12
154283.703000 496662.469000 -1.606000 12
154284.875000 496662.438000 -1.241000 12
154284.781000 496663.781000 -1.585000 12
154285.250000 496663.938000 -1.895000 12
154285.156000 496663.594000 -1.830000 12
154284.563000 496664.188000 -1.612000 12
154284.875000 496664.125000 -1.642000 12
154284.422000 496662.344000 -1.072000 12
154284.484000 496663.875000 -1.663000 12
154283.766000 496662.750000 -1.364000 12
154284.688000 496663.406000 -1.603000 12
154283.938000 496663.406000 -1.537000 12
154283.844000 496663.094000 -1.480000 12
154284.609000 496663.125000 -1.670000 12
154284.219000 496662.813000 -1.209000 12
154284.391000 496663.469000 -1.300000 12
154285.000000 496662.969000 -0.466000 12
154285.172000 496663.656000 -0.392000 12
154285.078000 496663.250000 -0.078000 12
154285.391000 496662.969000 -0.222000 12
154285.453000 496663.250000 -1.763000 12
154285.781000 496662.781000 -0.698000 12
154285.578000 496663.750000 -0.835000 12
154286.625000 496662.906000 -0.342000 12
154286.203000 496662.969000 -0.540000 12
154286.281000 496663.344000 -0.781000 12
154286.125000 496662.719000 -0.713000 12
154286.672000 496663.125000 -1.521000 12
154286.953000 496662.813000 -0.699000 12
154286.875000 496662.500000 -0.728000 12
154286.500000 496662.438000 -1.097000 12
154285.891000 496661.781000 -1.095000 12
154286.797000 496662.219000 -1.188000 12
154286.422000 496662.125000 -1.230000 12
154286.734000 496661.938000 -1.352000 12
154286.328000 496661.750000 -1.050000 12
154285.625000 496660.719000 -0.861000 12
154286.250000 496661.438000 -1.012000 12
154286.063000 496660.719000 -0.645000 12
154285.984000 496660.406000 -0.737000 12
154286.547000 496661.219000 -1.039000 12
154286.859000 496660.781000 -1.755000 12
154286.469000 496660.875000 -0.901000 12
154286.328000 496660.313000 -1.328000 12
154286.250000 496660.031000 -1.578000 12
154286.203000 496658.156000 -1.811000 12
154286.641000 496658.625000 -1.476000 12
154286.344000 496658.688000 -1.271000 12
154285.766000 496658.094000 -1.706000 12
154285.266000 496657.531000 -1.371000 12
154284.906000 496657.844000 -1.378000 12
154285.328000 496657.781000 -1.106000 12
154286.063000 496659.313000 -1.053000 12
154285.891000 496658.625000 -0.973000 12
154285.734000 496659.375000 -0.516000 12
154285.984000 496658.969000 -1.263000 12
154285.078000 496658.531000 -1.393000 12
154285.281000 496659.344000 -0.563000 12
154285.578000 496658.750000 -0.956000 12
154285.672000 496659.156000 -1.099000 12
154284.297000 496660.156000 -1.427000 12
154284.594000 496659.844000 -1.385000 12
154284.453000 496659.250000 -1.536000 12
154284.313000 496658.688000 -2.121000 12
154283.875000 496660.188000 -1.910000 12
154284.094000 496659.344000 -2.325000 12
154283.484000 496658.594000 -1.954000 12
154283.266000 496658.969000 -1.922000 12
154283.234000 496660.625000 -2.479000 12
154283.297000 496660.875000 -1.944000 12
154282.859000 496659.156000 -1.821000 12
154283.531000 496660.031000 -2.314000 12
154282.063000 496660.313000 -2.408000 12
154282.438000 496660.500000 -2.500000 12
154281.969000 496659.906000 -1.990000 12
154282.234000 496659.688000 -1.750000 12
154282.313000 496660.000000 -1.671000 12
154282.922000 496659.375000 -1.057000 12
154282.469000 496660.656000 -1.358000 12
154280.609000 496660.781000 -1.392000 12
154280.078000 496660.344000 -0.701000 12
154280.172000 496660.688000 -0.792000 12
154280.438000 496660.125000 -1.445000 12
154280.906000 496660.688000 -0.271000 12
