154666.266000 496390.031000 -2.070000 5
154666.344000 496390.313000 -1.914000 5
154666.594000 496389.938000 -2.346000 5
154667.406000 496390.281000 -2.218000 5
154667.656000 496391.219000 -1.996000 5
154668.516000 496390.750000 -2.155000 5
154668.469000 496391.000000 -1.667000 5
154668.547000 496391.281000 -1.987000 5
154669.438000 496391.594000 -1.869000 5
154669.594000 496390.625000 -1.796000 5
154670.203000 496389.938000 -1.605000 5
154670.938000 496389.563000 -1.670000 5
154671.766000 496389.656000 -1.483000 5
154671.859000 496388.750000 -1.827000 5
154671.063000 496388.500000 -1.715000 5
154671.156000 496387.531000 -1.775000 5
154670.594000 496386.875000 -2.036000 5
154670.406000 496386.094000 -1.667000 5
154670.188000 496386.656000 -2.295000 5
154670.250000 496386.688000 -2.187000 5
154670.563000 496386.563000 -2.250000 5
154670.641000 496386.875000 -1.971000 5
154670.969000 496386.719000 -1.748000 5
154671.656000 496386.344000 -1.924000 5
154671.016000 496386.781000 -1.785000 5
154670.891000 496387.031000 -1.367000 5
154670.719000 496387.156000 -2.129000 5
154671.672000 496389.281000 -1.847000 5
154670.844000 496389.188000 -2.172000 5
154670.703000 496389.438000 -1.892000 5
154670.281000 496390.063000 -1.735000 5
154670.797000 496390.594000 -2.312000 5
154671.547000 496390.906000 -1.749000 5
154671.891000 496391.719000 -1.818000 5
154672.500000 496392.438000 -2.065000 5
154673.219000 496392.344000 -1.842000 5
154673.859000 496391.719000 -1.659000 5
154674.313000 496392.313000 -1.996000 5
154675.078000 496392.219000 -1.656000 5
154675.609000 496391.938000 -2.242000 5
154676.156000 496391.250000 -2.226000 5
154676.953000 496390.656000 -2.134000 5
154677.609000 496389.969000 -1.921000 5
154677.625000 496391.156000 -1.981000 5
154678.234000 496391.563000 -1.859000 5
154678.109000 496391.906000 -1.277000 5
154678.625000 496391.563000 -2.163000 5
154678.016000 496391.563000 -1.889000 5
154677.922000 496391.188000 -2.330000 5
154677.859000 496391.500000 -2.148000 5
154677.344000 496390.844000 -1.829000 5
154676.719000 496390.188000 -2.114000 5
154675.484000 496390.781000 -1.855000 5
154674.703000 496390.875000 -1.759000 5
154676.891000 496391.531000 -2.136000 5
154676.734000 496390.906000 -1.891000 5
154675.109000 496392.563000 -1.921000 5
154673.297000 496391.219000 -1.773000 5
154673.563000 496390.594000 -1.829000 5
154674.547000 496391.563000 -1.906000 5
154674.094000 496391.719000 -2.165000 5
154673.844000 496391.344000 -1.933000 5
154673.766000 496391.406000 -1.924000 5
154674.078000 496391.375000 -1.687000 5
154673.766000 496391.656000 -1.598000 5
154673.938000 496392.344000 -2.164000 5
154673.859000 496392.688000 -1.712000 5
154673.188000 496392.156000 -2.098000 5
154672.391000 496392.438000 -2.049000 5
154672.516000 496391.219000 -1.841000 5
154672.594000 496391.563000 -1.953000 5
154672.344000 496391.094000 -1.712000 5
154670.984000 496391.281000 -1.348000 5
154671.750000 496391.625000 -1.944000 5
154672.172000 496391.219000 -1.587000 5
154671.469000 496391.219000 -1.293000 5
154672.094000 496390.906000 -1.819000 5
154671.891000 496390.969000 -1.743000 5
154671.719000 496391.031000 -1.527000 5
154670.531000 496391.031000 -1.523000 5
154670.766000 496391.000000 -1.817000 5
154670.891000 496390.938000 -1.881000 5
154671.266000 496390.844000 -2.306000 5
154671.203000 496390.813000 -2.204000 5
154669.984000 496390.875000 -2.345000 5
154669.688000 496390.969000 -1.278000 5
154670.250000 496391.375000 -1.633000 5
154670.000000 496392.188000 -1.181000 5
154669.922000 496391.906000 -1.419000 5
154669.844000 496391.563000 -1.906000 5
154669.828000 496391.531000 -1.887000 5
154669.438000 496391.781000 -1.636000 5
154668.359000 496391.406000 -2.110000 5
154668.078000 496390.969000 -1.476000 5
154667.813000 496390.594000 -1.976000 5
154667.891000 496390.250000 -1.930000 5
154666.469000 496389.906000 -2.248000 5
154665.766000 496389.719000 -2.315000 5
154665.797000 496389.594000 -2.533000 5
154666.000000 496389.031000 -2.355000 5
154665.953000 496388.938000 -2.370000 5
154666.922000 496388.406000 -2.111000 5
154666.766000 496388.656000 -1.968000 5
154667.031000 496389.031000 -1.879000 5
154667.250000 496389.688000 -1.846000 5
154667.078000 496389.063000 -2.072000 5
154667.297000 496389.500000 -2.156000 5
154667.625000 496389.531000 -2.115000 5
154670.031000 496389.094000 -2.443000 5
154668.484000 496389.313000 -2.055000 5
154669.359000 496389.688000 -1.741000 5
154669.141000 496389.625000 -1.773000 5
154668.891000 496389.188000 -1.944000 5
154668.953000 496388.875000 -1.848000 5
154669.563000 496388.906000 -1.732000 5
154669.031000 496388.563000 -1.770000 5
154670.203000 496388.500000 -2.084000 5
154670.219000 496388.375000 -2.243000 5
154669.891000 496387.094000 -2.016000 5
154669.766000 496387.000000 -2.418000 5
154667.828000 496386.813000 -1.454000 5
154667.484000 496387.063000 -1.591000 5
154666.094000 496386.281000 -1.442000 5
154666.188000 496386.313000 -1.495000 5
154666.344000 496386.188000 -1.623000 5
154665.922000 496386.031000 -1.945000 5
154666.000000 496385.938000 -1.876000 5
154666.250000 496385.844000 -2.294000 5
154666.547000 496386.438000 -1.503000 5
154667.391000 496386.844000 -1.560000 5
154668.063000 496386.281000 -1.937000 5
154667.750000 496386.469000 -1.752000 5
154667.234000 496386.719000 -1.739000 5
154667.313000 496386.406000 -1.901000 5
154668.000000 496386.094000 -3.164000 5
154667.547000 496385.375000 -3.056000 5
154667.578000 496385.781000 -2.796000 5
154668.563000 496385.063000 -2.174000 5
154667.922000 496385.781000 -3.224000 5
154667.750000 496385.156000 -3.051000 5
154668.156000 496385.875000 -3.247000 5
154667.844000 496385.469000 -3.092000 5
154667.875000 496385.469000 -2.881000 5
154668.219000 496385.594000 -2.728000 5
154668.172000 496385.094000 -3.236000 5
154669.484000 496385.563000 -2.486000 5
154668.344000 496385.750000 -3.147000 5
154669.391000 496385.531000 -2.533000 5
154668.313000 496385.250000 -3.238000 5
154669.047000 496386.938000 -2.707000 5
154668.719000 496385.656000 -2.938000 5
154668.750000 496386.688000 -3.009000 5
154668.969000 496385.750000 -2.992000 5
154669.078000 496386.781000 -3.205000 5
154669.219000 496385.906000 -2.768000 5
154668.969000 496386.625000 -3.004000 5
154669.234000 496386.188000 -2.716000 5
154669.563000 496385.813000 -3.264000 5
154668.875000 496386.281000 -3.213000 5
154670.000000 496386.063000 -2.727000 5
154669.578000 496386.250000 -3.220000 5
154669.734000 496386.469000 -3.346000 5
154670.266000 496386.656000 -3.394000 5
154670.094000 496386.313000 -3.245000 5
154670.922000 496386.375000 -3.376000 5
154670.375000 496385.844000 -3.282000 5
154670.078000 496385.688000 -3.325000 5
154671.281000 496385.406000 -3.395000 5
154672.188000 496385.313000 -3.399000 5
154672.953000 496385.000000 -3.400000 5
154673.609000 496384.750000 -3.329000 5
154673.016000 496384.688000 -3.356000 5
154672.313000 496384.594000 -3.345000 5
154670.297000 496385.563000 -3.323000 5
154670.422000 496384.438000 -3.328000 5
154670.391000 496384.406000 -3.316000 5
154670.797000 496384.406000 -3.286000 5
154670.469000 496384.094000 -3.267000 5
154670.328000 496384.094000 -3.238000 5
154670.359000 496382.906000 -2.322000 5
154671.234000 496383.281000 -2.151000 5
154671.484000 496384.219000 -2.033000 5
154670.594000 496383.844000 -3.322000 5
154670.203000 496383.656000 -3.222000 5
154670.172000 496383.469000 -3.259000 5
154670.281000 496383.344000 -3.223000 5
154669.063000 496382.094000 -3.232000 5
154669.625000 496381.125000 -3.275000 5
154669.813000 496382.219000 -2.259000 5
154670.234000 496380.906000 -1.930000 5
154670.109000 496380.969000 -1.721000 5
154667.938000 496380.594000 -2.562000 5
154667.438000 496381.094000 -3.234000 5
154667.375000 496380.531000 -3.344000 5
154667.469000 496380.813000 -3.339000 5
154667.797000 496380.438000 -3.381000 5
154668.219000 496380.688000 -2.159000 5
154668.063000 496381.375000 -1.768000 5
154668.063000 496381.500000 -1.607000 5
154667.984000 496381.688000 -1.646000 5
154667.266000 496381.781000 -2.398000 5
154666.766000 496382.656000 -2.124000 5
154666.031000 496383.063000 -1.870000 5
154665.250000 496383.063000 -1.634000 5
154665.859000 496383.000000 -2.390000 5
154665.766000 496383.344000 -1.570000 5
154666.922000 496383.313000 -1.838000 5
154667.031000 496382.375000 -2.106000 5
154667.125000 496382.719000 -1.513000 5
154667.172000 496382.156000 -1.337000 5
154666.750000 496382.563000 -2.060000 5
154666.594000 496382.000000 -2.067000 5
154665.516000 496382.781000 -2.154000 5
154665.953000 496382.750000 -2.191000 5
154666.406000 496382.156000 -2.229000 5
154665.656000 496382.188000 -1.779000 5
154665.750000 496381.813000 -2.037000 5
154664.375000 496381.375000 -2.130000 5
154663.547000 496381.156000 -1.816000 5
154662.891000 496380.594000 -1.972000 5
154663.500000 496379.813000 -2.040000 5
154663.656000 496379.188000 -2.559000 5
154663.031000 496379.188000 -3.314000 5
154663.688000 496378.719000 -3.503000 5
154663.922000 496377.875000 -3.477000 5
154663.016000 496377.531000 -3.424000 5
154663.188000 496377.813000 -2.498000 5
154663.969000 496377.906000 -2.322000 5
154664.891000 496377.531000 -2.242000 5
154665.266000 496376.875000 -1.968000 5
154665.875000 496376.250000 -1.874000 5
154665.609000 496376.094000 -2.074000 5
154664.813000 496375.813000 -1.597000 5
154664.422000 496375.375000 -2.391000 5
154663.641000 496375.906000 -2.110000 5
154662.781000 496375.969000 -2.180000 5
154662.125000 496375.313000 -1.938000 5
154661.344000 496375.531000 -1.635000 5
154661.109000 496374.625000 -1.770000 5
154660.672000 496374.281000 -2.488000 5
154660.188000 496373.781000 -3.188000 5
154661.016000 496373.344000 -3.133000 5
154661.859000 496373.063000 -3.295000 5
154662.766000 496373.438000 -3.172000 5
154663.250000 496374.031000 -2.603000 5
154662.453000 496374.000000 -2.192000 5
154661.688000 496373.813000 -2.488000 5
154662.547000 496374.344000 -2.154000 5
154663.766000 496373.469000 -2.421000 5
154664.578000 496373.563000 -1.992000 5
154665.438000 496373.219000 -1.712000 5
154666.156000 496373.844000 -1.758000 5
154666.391000 496374.531000 -2.421000 5
154665.438000 496374.625000 -2.192000 5
154665.063000 496374.813000 -1.611000 5
154665.047000 496374.688000 -1.609000 5
154665.141000 496374.500000 -1.996000 5
154666.688000 496374.656000 -2.222000 5
154667.328000 496374.156000 -1.812000 5
154667.172000 496373.500000 -2.203000 5
154667.547000 496372.719000 -1.803000 5
154668.438000 496372.469000 -1.822000 5
154668.125000 496371.875000 -2.558000 5
154668.719000 496372.469000 -2.819000 5
154668.250000 496371.781000 -2.486000 5
154669.109000 496372.250000 -2.441000 5
154669.688000 496371.469000 -2.265000 5
154669.953000 496370.719000 -2.552000 5
154669.875000 496370.813000 -2.685000 5
154670.453000 496371.375000 -2.216000 5
154669.797000 496371.156000 -2.399000 5
154669.016000 496371.906000 -2.081000 5
154668.344000 496372.125000 -2.516000 5
154668.453000 496372.094000 -2.059000 5
154666.922000 496372.313000 -2.311000 5
154666.266000 496371.750000 -2.221000 5
154665.828000 496371.594000 -1.748000 5
154665.047000 496371.594000 -2.068000 5
154665.844000 496371.500000 -1.805000 5
154666.688000 496371.594000 -2.205000 5
154666.922000 496370.625000 -2.218000 5
154667.453000 496370.063000 -1.725000 5
154667.188000 496369.156000 -1.424000 5
154668.000000 496369.156000 -0.913000 5
154668.531000 496368.625000 -0.316000 5
154669.078000 496367.844000 -0.049000 5
154668.234000 496367.344000 0.096000 5
154668.969000 496366.781000 0.463000 5
154669.188000 496365.844000 0.340000 5
154669.938000 496365.875000 0.951000 5
154670.547000 496366.625000 1.187000 5
154670.953000 496365.750000 1.024000 5
154670.516000 496364.938000 0.678000 5
154669.813000 496364.250000 0.856000 5
154669.125000 496364.625000 0.248000 5
154668.266000 496364.969000 -0.048000 5
154667.406000 496365.000000 0.425000 5
154667.172000 496365.969000 0.419000 5
154666.766000 496366.156000 -0.402000 5
154666.609000 496366.781000 -1.144000 5
154666.391000 496367.719000 -1.052000 5
154666.953000 496368.250000 -0.830000 5
154666.703000 496367.906000 -0.113000 5
154667.047000 496367.156000 0.169000 5
154666.875000 496367.219000 0.088000 5
154667.125000 496367.469000 0.074000 5
154666.719000 496367.344000 0.023000 5
154666.781000 496367.563000 0.139000 5
154666.797000 496367.625000 0.093000 5
154666.891000 496367.969000 -0.126000 5
154667.281000 496368.063000 -0.206000 5
154667.141000 496368.031000 -0.216000 5
154666.563000 496368.344000 -1.371000 5
154666.203000 496368.219000 -2.249000 5
154666.813000 496367.438000 -2.337000 5
154666.734000 496367.781000 -2.441000 5
154666.031000 496367.563000 -2.410000 5
154666.375000 496367.625000 -2.511000 5
154665.813000 496368.344000 -2.367000 5
154665.891000 496368.031000 -2.138000 5
154666.266000 496368.250000 -2.460000 5
154666.641000 496368.594000 -2.077000 5
154666.656000 496368.125000 -1.419000 5
154666.313000 496368.031000 -1.131000 5
154666.484000 496368.000000 -1.055000 5
154666.406000 496367.688000 -1.029000 5
154666.313000 496367.375000 -1.146000 5
154666.469000 496367.375000 -1.065000 5
154667.031000 496367.094000 -1.286000 5
154667.703000 496366.844000 -0.716000 5
154668.500000 496366.969000 -0.851000 5
154668.516000 496366.938000 -1.824000 5
154668.391000 496367.875000 -1.548000 5
154669.094000 496367.781000 -1.193000 5
154669.781000 496367.094000 -1.055000 5
154669.391000 496366.531000 -0.702000 5
154669.984000 496367.125000 -0.373000 5
154670.250000 496367.563000 0.445000 5
154670.938000 496367.469000 0.268000 5
154671.547000 496366.719000 0.368000 5
154672.172000 496367.406000 0.406000 5
154673.047000 496367.844000 0.225000 5
154673.719000 496367.219000 0.285000 5
154673.547000 496366.563000 0.258000 5
154673.203000 496366.125000 -0.557000 5
154672.438000 496366.313000 0.006000 5
154671.766000 496365.781000 -0.252000 5
154672.297000 496364.969000 -0.079000 5
154672.516000 496364.188000 0.449000 5
154672.719000 496363.344000 -0.027000 5
154673.250000 496364.156000 -0.253000 5
154673.500000 496364.875000 -0.901000 5
154674.359000 496365.313000 -0.642000 5
154674.750000 496364.563000 -0.227000 5
154674.219000 496363.750000 -0.079000 5
154674.156000 496363.000000 -0.709000 5
154673.516000 496363.594000 -1.193000 5
154674.219000 496363.219000 -1.789000 5
154675.078000 496363.188000 -1.401000 5
154674.547000 496362.344000 -1.412000 5
154675.172000 496362.281000 -2.179000 5
154675.844000 496361.750000 -1.882000 5
154676.563000 496361.844000 -2.426000 5
154676.844000 496362.438000 -1.811000 5
154676.188000 496363.063000 -1.685000 5
154676.094000 496362.688000 -2.152000 5
154677.484000 496362.094000 -2.113000 5
154677.938000 496362.563000 -1.655000 5
154677.313000 496361.438000 -1.788000 5
154677.359000 496361.500000 -1.799000 5
154678.031000 496362.188000 -2.205000 5
154677.578000 496362.406000 -2.003000 5
154677.563000 496362.406000 -1.786000 5
154677.328000 496362.781000 -1.770000 5
154677.266000 496363.719000 -1.737000 5
154677.719000 496364.313000 -2.231000 5
154678.250000 496363.563000 -2.325000 5
154678.344000 496363.938000 -1.845000 5
154678.078000 496364.344000 -1.937000 5
154677.906000 496364.188000 -2.131000 5
154676.703000 496362.656000 -1.538000 5
154677.141000 496362.438000 -2.229000 5
154676.375000 496361.031000 -1.947000 5
154676.609000 496361.500000 -1.729000 5
154676.281000 496361.375000 -1.954000 5
154676.313000 496362.000000 -2.043000 5
154675.469000 496361.531000 -1.936000 5
154674.547000 496361.438000 -2.116000 5
154674.109000 496360.875000 -2.008000 5
154673.781000 496359.969000 -1.847000 5
154672.984000 496359.438000 -1.992000 5
154673.141000 496358.750000 -1.928000 5
154673.656000 496358.000000 -1.566000 5
154673.516000 496357.219000 -1.840000 5
154673.672000 496356.531000 -1.992000 5
154674.344000 496356.000000 -1.781000 5
154673.984000 496355.250000 -2.303000 5
154674.484000 496354.938000 -1.978000 5
154675.234000 496354.563000 -2.499000 5
154675.969000 496354.469000 -2.048000 5
154676.516000 496353.813000 -2.235000 5
154677.391000 496353.469000 -2.168000 5
154678.141000 496353.625000 -1.551000 5
154677.906000 496354.438000 -1.974000 5
154677.891000 496352.625000 -2.123000 5
154677.703000 496352.156000 -2.496000 5
154677.297000 496352.063000 -3.361000 5
154676.453000 496352.469000 -3.285000 5
154676.344000 496351.688000 -3.379000 5
154677.141000 496352.969000 -3.457000 5
154676.438000 496352.000000 -3.351000 5
154676.516000 496352.344000 -3.273000 5
154677.094000 496352.844000 -3.461000 5
154676.609000 496351.844000 -3.378000 5
154676.875000 496352.563000 -3.354000 5
154677.016000 496352.563000 -3.337000 5
154676.859000 496351.906000 -3.326000 5
154677.203000 496351.719000 -3.348000 5
154677.375000 496352.031000 -3.275000 5
154677.797000 496352.281000 -2.434000 5
154678.109000 496352.219000 -2.076000 5
154678.188000 496352.563000 -1.826000 5
154678.047000 496352.313000 -2.047000 5
154677.969000 496352.625000 -2.089000 5
154677.203000 496352.750000 -2.241000 5
154677.656000 496353.438000 -2.225000 5
154677.375000 496353.906000 -2.071000 5
154677.313000 496353.813000 -2.027000 5
154675.875000 496353.469000 -2.300000 5
154675.297000 496352.906000 -2.284000 5
154675.375000 496353.969000 -1.924000 5
154675.844000 496354.313000 -2.426000 5
154675.656000 496354.406000 -2.306000 5
154675.578000 496354.750000 -2.233000 5
154674.578000 496354.000000 -2.011000 5
154674.891000 496354.563000 -1.731000 5
154674.563000 496355.219000 -2.174000 5
154673.844000 496355.500000 -1.645000 5
154674.656000 496355.594000 -1.702000 5
154674.000000 496356.063000 -2.436000 5
154673.750000 496356.219000 -2.526000 5
154674.031000 496356.313000 -1.641000 5
154673.703000 496356.625000 -2.003000 5
154673.016000 496357.063000 -2.039000 5
154673.797000 496356.938000 -1.948000 5
154673.594000 496356.844000 -1.899000 5
154673.797000 496357.281000 -1.710000 5
154673.438000 496357.500000 -2.020000 5
154673.953000 496357.594000 -1.908000 5
154672.516000 496358.219000 -1.612000 5
154671.656000 496358.000000 -1.985000 5
154671.109000 496357.188000 -1.812000 5
154670.453000 496357.875000 -1.750000 5
154669.547000 496357.938000 -1.987000 5
154668.625000 496358.313000 -2.052000 5
154668.422000 496357.406000 -2.325000 5
154667.563000 496357.250000 -2.060000 5
154666.766000 496357.438000 -1.543000 5
154666.578000 496356.656000 -2.023000 5
154666.469000 496356.031000 -1.962000 5
154667.078000 496355.344000 -2.145000 5
154666.531000 496354.594000 -1.972000 5
154666.016000 496354.031000 -2.236000 5
154665.438000 496354.781000 -1.943000 5
154664.703000 496355.281000 -2.055000 5
154663.859000 496354.875000 -2.138000 5
154663.938000 496354.625000 -1.513000 5
154664.016000 496354.313000 -2.074000 5
154663.781000 496355.250000 -2.009000 5
154663.875000 496354.906000 -2.105000 5
154665.219000 496355.750000 -2.227000 5
154664.891000 496354.406000 -2.428000 5
154665.281000 496355.438000 -2.222000 5
154665.344000 496355.188000 -1.450000 5
154665.031000 496354.594000 -2.205000 5
154665.141000 496353.938000 -1.812000 5
154666.578000 496353.438000 -2.347000 5
154666.094000 496353.688000 -2.379000 5
154666.047000 496354.406000 -2.303000 5
154666.344000 496354.219000 -1.773000 5
154667.750000 496355.188000 -1.681000 5
154668.109000 496355.188000 -1.922000 5
154669.031000 496354.906000 -1.897000 5
154669.172000 496355.844000 -1.611000 5
154669.078000 496356.438000 -1.334000 5
154668.844000 496356.156000 -2.075000 5
154668.328000 496356.281000 -2.060000 5
154669.266000 496356.156000 -1.512000 5
154669.703000 496354.938000 -1.921000 5
154669.469000 496354.813000 -2.023000 5
154669.188000 496354.563000 -2.092000 5
154668.938000 496353.625000 -1.950000 5
154669.375000 496353.719000 -1.723000 5
154669.109000 496354.563000 -2.092000 5
154669.281000 496354.906000 -1.771000 5
154668.766000 496355.875000 -1.823000 5
154668.797000 496355.844000 -1.901000 5
154668.875000 496355.531000 -2.036000 5
154668.703000 496354.688000 -1.910000 5
154666.906000 496354.719000 -1.792000 5
154665.719000 496356.188000 -2.393000 5
154667.234000 496355.969000 -1.655000 5
154666.000000 496355.438000 -2.233000 5
154667.156000 496355.656000 -1.893000 5
154667.016000 496356.469000 -2.416000 5
154667.000000 496356.438000 -2.281000 5
154666.500000 496357.406000 -2.015000 5
154666.797000 496357.344000 -1.546000 5
154667.234000 496357.313000 -2.351000 5
154668.016000 496357.313000 -2.965000 5
154668.875000 496357.281000 -3.418000 5
154669.641000 496357.625000 -3.334000 5
154670.172000 496356.781000 -3.356000 5
154669.578000 496356.031000 -3.374000 5
154670.266000 496357.125000 -2.500000 5
154670.141000 496357.125000 -2.586000 5
154669.656000 496356.344000 -3.345000 5
154670.563000 496356.625000 -3.421000 5
154669.891000 496356.563000 -3.258000 5
154670.094000 496356.469000 -3.394000 5
154670.234000 496356.719000 -3.429000 5
154669.734000 496356.688000 -3.297000 5
154669.891000 496357.281000 -3.447000 5
154669.641000 496357.563000 -3.256000 5
154669.563000 496357.281000 -3.216000 5
154669.031000 496356.625000 -3.339000 5
154669.297000 496357.063000 -3.231000 5
154669.219000 496357.406000 -3.295000 5
154669.063000 496357.031000 -3.398000 5
154669.156000 496357.375000 -3.452000 5
154667.797000 496358.094000 -3.417000 5
154668.063000 496358.969000 -3.266000 5
154668.734000 496358.969000 -3.491000 5
154668.266000 496358.250000 -3.455000 5
154667.500000 496358.313000 -3.358000 5
154668.109000 496357.656000 -2.799000 5
154668.250000 496357.094000 -2.364000 5
154668.328000 496357.438000 -2.032000 5
154668.750000 496359.031000 -2.505000 5
154669.344000 496359.563000 -2.039000 5
154669.234000 496359.281000 -1.445000 5
154669.438000 496359.906000 -1.476000 5
154669.672000 496360.844000 -1.526000 5
154669.922000 496361.781000 -1.719000 5
154669.359000 496362.500000 -1.870000 5
154670.172000 496362.750000 -1.354000 5
154670.172000 496363.250000 -1.056000 5
154670.766000 496363.875000 -0.841000 5
154670.172000 496364.500000 -0.997000 5
154670.953000 496364.938000 -0.811000 5
154671.578000 496365.094000 -1.357000 5
154672.203000 496365.844000 -1.515000 5
154671.828000 496366.031000 -2.167000 5
154672.234000 496366.281000 -2.981000 5
154671.313000 496366.438000 -3.292000 5
154670.563000 496366.000000 -3.377000 5
154670.078000 496365.281000 -3.005000 5
154669.469000 496364.688000 -2.495000 5
154669.078000 496364.406000 -3.370000 5
154669.703000 496363.688000 -3.295000 5
154669.594000 496363.406000 -2.367000 5
154670.375000 496364.000000 -2.689000 5
154670.641000 496364.375000 -3.397000 5
154670.891000 496364.063000 -3.329000 5
154670.719000 496364.031000 -3.382000 5
154670.563000 496364.281000 -2.742000 5
154668.297000 496364.344000 -3.300000 5
154668.109000 496364.000000 -2.486000 5
154667.875000 496364.469000 -1.715000 5
154668.094000 496364.094000 -0.842000 5
154667.297000 496363.906000 -0.321000 5
154666.672000 496363.188000 -0.048000 5
154667.078000 496362.844000 -0.050000 5
154666.750000 496362.875000 -0.132000 5
154666.438000 496363.156000 -0.192000 5
154666.734000 496363.125000 -0.102000 5
154666.516000 496363.438000 -0.481000 5
154666.875000 496363.938000 -1.259000 5
154666.375000 496364.531000 -0.679000 5
154666.469000 496364.906000 -0.156000 5
154666.125000 496365.063000 -0.435000 5
154666.234000 496365.063000 -0.401000 5
154666.297000 496364.781000 -0.569000 5
154666.125000 496363.563000 -1.630000 5
154666.719000 496363.031000 -1.733000 5
154667.266000 496362.313000 -1.601000 5
154667.578000 496361.563000 -1.023000 5
154667.641000 496360.719000 -1.471000 5
154667.047000 496361.281000 -1.890000 5
154668.500000 496360.813000 -1.328000 5
154668.766000 496361.250000 -0.531000 5
154668.609000 496361.906000 -0.225000 5
154669.344000 496362.156000 0.274000 5
154668.641000 496362.719000 0.411000 5
154669.188000 496363.469000 0.580000 5
154668.484000 496364.031000 0.755000 5
154669.891000 496362.906000 0.691000 5
154670.703000 496363.375000 0.877000 5
154671.547000 496363.625000 0.542000 5
154671.750000 496362.969000 -0.086000 5
154671.953000 496363.656000 -0.646000 5
154671.125000 496362.375000 0.127000 5
154671.281000 496361.688000 -0.522000 5
154671.750000 496361.250000 -1.282000 5
154671.203000 496360.563000 -1.291000 5
154670.594000 496361.250000 -1.140000 5
154670.672000 496360.313000 -1.849000 5
154670.875000 496360.313000 -1.905000 5
154670.719000 496360.969000 -1.014000 5
154670.766000 496360.656000 -1.212000 5
154670.781000 496360.656000 -1.383000 5
154671.125000 496360.406000 -1.306000 5
154672.563000 496361.531000 -1.349000 5
154673.438000 496361.813000 -0.956000 5
154672.813000 496362.500000 -0.619000 5
154672.500000 496362.781000 -0.925000 5
154672.609000 496362.938000 -1.874000 5
154673.266000 496362.563000 -2.193000 5
154672.578000 496362.406000 -2.076000 5
154672.797000 496362.406000 -1.846000 5
154672.969000 496363.063000 -2.219000 5
154672.984000 496362.594000 -1.862000 5
154672.906000 496362.875000 -2.091000 5
154672.891000 496362.750000 -1.909000 5
154672.688000 496363.219000 -1.963000 5
154672.469000 496364.031000 -2.246000 5
154672.719000 496364.969000 -2.475000 5
154672.625000 496364.594000 -3.369000 5
154672.922000 496364.094000 -3.503000 5
154672.531000 496364.469000 -3.261000 5
154672.453000 496364.781000 -3.363000 5
154673.516000 496364.781000 -2.345000 5
154674.328000 496365.219000 -2.305000 5
154674.500000 496365.906000 -1.662000 5
154673.891000 496366.625000 -1.707000 5
154673.438000 496366.125000 -1.826000 5
154673.891000 496366.625000 -1.633000 5
154673.625000 496366.188000 -1.649000 5
154674.344000 496366.781000 -1.631000 5
154674.234000 496366.750000 -1.631000 5
154675.250000 496365.656000 -1.987000 5
154675.938000 496365.219000 -1.635000 5
154675.516000 496364.594000 -1.069000 5
154676.094000 496364.156000 -0.436000 5
154676.000000 496364.219000 -0.488000 5
154675.609000 496364.250000 -1.362000 5
154675.703000 496364.313000 -1.161000 5
154675.484000 496365.063000 -0.890000 5
154675.359000 496365.250000 -0.997000 5
154676.156000 496364.406000 -1.741000 5
154675.781000 496364.594000 -1.158000 5
154675.938000 496364.469000 -1.827000 5
154675.859000 496364.781000 -1.495000 5
154675.859000 496364.906000 -1.553000 5
154675.781000 496365.094000 -1.601000 5
154675.719000 496365.406000 -1.744000 5
154675.641000 496365.719000 -1.735000 5
154675.641000 496365.625000 -2.013000 5
154676.219000 496366.281000 -2.476000 5
154676.828000 496365.563000 -2.555000 5
154677.672000 496365.563000 -2.378000 5
154678.234000 496366.281000 -2.208000 5
154679.063000 496366.125000 -2.237000 5
154679.656000 496365.938000 -2.086000 5
154680.047000 496365.313000 -1.630000 5
154680.281000 496365.125000 -1.939000 5
154680.281000 496364.313000 -1.969000 5
154680.453000 496365.781000 -1.865000 5
154679.844000 496365.156000 -1.971000 5
154680.313000 496365.625000 -2.096000 5
154680.219000 496365.969000 -1.789000 5
154680.094000 496366.125000 -1.782000 5
154678.234000 496366.375000 -2.074000 5
154677.547000 496366.781000 -1.506000 5
154676.828000 496366.969000 -1.989000 5
154677.281000 496366.781000 -1.710000 5
154677.438000 496366.125000 -1.815000 5
154677.844000 496366.250000 -2.141000 5
154677.813000 496366.188000 -2.173000 5
154677.375000 496366.094000 -2.177000 5
154677.531000 496365.781000 -2.343000 5
154677.297000 496365.781000 -2.300000 5
154677.109000 496366.063000 -2.336000 5
154676.813000 496365.625000 -2.624000 5
154676.906000 496365.875000 -2.470000 5
154676.750000 496365.938000 -2.561000 5
154676.656000 496366.281000 -2.340000 5
154676.656000 496366.313000 -2.436000 5
154676.172000 496366.125000 -2.647000 5
154675.859000 496366.500000 -3.487000 5
154675.016000 496366.281000 -3.483000 5
154674.156000 496366.063000 -3.476000 5
154673.234000 496365.938000 -3.536000 5
154673.391000 496365.344000 -3.482000 5
154673.422000 496366.063000 -3.077000 5
154673.734000 496365.750000 -3.502000 5
154673.703000 496365.875000 -3.345000 5
154674.078000 496365.719000 -3.434000 5
154674.078000 496365.875000 -3.341000 5
154674.500000 496365.625000 -3.469000 5
154674.484000 496365.813000 -3.395000 5
154674.422000 496365.938000 -3.391000 5
154674.828000 496365.750000 -3.369000 5
154674.563000 496366.125000 -3.477000 5
154674.938000 496365.969000 -3.489000 5
154675.172000 496366.063000 -3.463000 5
154675.313000 496365.906000 -3.471000 5
154675.094000 496366.406000 -3.475000 5
154675.875000 496366.125000 -2.748000 5
154673.813000 496366.313000 -1.558000 5
154675.031000 496366.375000 -1.807000 5
154673.969000 496366.313000 -1.684000 5
154674.953000 496366.063000 -2.039000 5
154674.266000 496366.438000 -1.528000 5
154674.313000 496366.406000 -1.562000 5
154674.047000 496365.969000 -1.518000 5
154674.188000 496366.156000 -1.547000 5
154674.734000 496366.156000 -1.811000 5
154674.594000 496366.219000 -1.541000 5
154674.406000 496366.063000 -1.551000 5
154675.156000 496365.313000 -2.227000 5
154674.813000 496365.844000 -2.060000 5
154674.469000 496365.750000 -1.707000 5
154674.859000 496365.688000 -2.161000 5
154674.781000 496365.375000 -2.269000 5
154674.406000 496365.531000 -2.360000 5
154673.844000 496364.844000 -2.178000 5
154673.047000 496365.375000 -1.901000 5
154672.344000 496365.125000 -3.118000 5
154672.781000 496365.250000 -3.024000 5
154672.703000 496365.188000 -2.895000 5
154672.609000 496364.125000 -3.221000 5
154672.266000 496364.813000 -2.690000 5
154672.781000 496364.875000 -2.370000 5
154672.531000 496364.281000 -3.063000 5
154673.016000 496364.500000 -2.201000 5
154672.453000 496362.344000 -0.561000 5
154672.547000 496362.656000 -0.831000 5
154672.563000 496362.469000 -0.569000 5
154673.375000 496362.375000 -1.372000 5
154673.047000 496362.313000 -0.868000 5
154673.203000 496362.344000 -0.777000 5
154673.516000 496362.125000 -1.080000 5
154673.438000 496362.094000 -1.042000 5
154673.516000 496361.781000 -1.160000 5
154672.359000 496362.063000 -0.559000 5
154673.125000 496362.063000 -0.779000 5
154673.125000 496362.000000 -0.795000 5
154672.391000 496362.063000 -0.625000 5
154673.344000 496361.438000 -1.278000 5
154673.281000 496361.344000 -1.202000 5
154673.203000 496361.656000 -1.175000 5
154672.719000 496362.125000 -1.579000 5
154672.375000 496362.031000 -1.535000 5
154672.719000 496361.813000 -0.974000 5
154672.938000 496361.344000 -1.170000 5
154672.641000 496361.813000 -1.484000 5
154672.813000 496361.469000 -1.286000 5
154672.438000 496361.719000 -1.276000 5
154672.516000 496361.406000 -1.363000 5
154672.469000 496361.156000 -1.539000 5
154671.813000 496361.344000 -2.017000 5
154671.125000 496360.906000 -1.190000 5
154671.219000 496360.781000 -1.179000 5
154672.000000 496361.906000 -1.312000 5
154672.281000 496361.688000 -1.271000 5
154671.578000 496360.594000 -1.393000 5
154671.516000 496360.656000 -1.467000 5
154672.031000 496360.719000 -1.534000 5
154672.203000 496361.344000 -1.680000 5
154671.297000 496361.094000 -1.416000 5
154672.078000 496361.594000 -1.346000 5
154671.875000 496361.063000 -1.700000 5
154671.453000 496360.969000 -1.281000 5
154671.672000 496360.938000 -1.261000 5
154670.641000 496361.313000 -1.073000 5
154671.625000 496362.375000 -0.984000 5
154670.859000 496361.000000 -0.899000 5
154671.922000 496361.906000 -1.093000 5
154671.047000 496361.219000 -1.195000 5
154671.719000 496361.719000 -1.137000 5
154671.375000 496361.406000 -1.196000 5
154670.938000 496361.281000 -1.011000 5
154671.359000 496361.344000 -1.146000 5
154670.953000 496361.594000 -0.898000 5
154670.766000 496361.969000 -0.602000 5
154669.938000 496361.844000 -0.521000 5
154671.469000 496361.781000 -0.296000 5
154671.109000 496362.000000 -0.293000 5
154670.813000 496362.219000 -0.211000 5
154671.203000 496362.000000 -0.147000 5
154670.859000 496362.281000 -0.031000 5
154671.203000 496362.313000 0.150000 5
154672.281000 496362.406000 -0.501000 5
154672.000000 496362.219000 -0.367000 5
154671.563000 496362.156000 -0.039000 5
154671.281000 496362.656000 0.465000 5
154671.906000 496362.281000 -0.382000 5
154672.078000 496362.531000 -0.307000 5
154671.641000 496362.438000 0.075000 5
154671.547000 496362.469000 0.045000 5
154671.828000 496362.656000 -0.093000 5
154671.734000 496362.781000 0.283000 5
154671.469000 496362.781000 0.459000 5
154671.359000 496364.250000 0.791000 5
154671.516000 496363.938000 -0.065000 5
154671.047000 496362.688000 0.347000 5
154670.938000 496362.625000 0.487000 5
154671.156000 496364.094000 0.833000 5
154671.391000 496363.094000 0.529000 5
154671.281000 496363.938000 0.820000 5
154671.375000 496363.031000 0.599000 5
154671.469000 496363.344000 0.690000 5
154670.875000 496364.031000 1.128000 5
154671.234000 496363.750000 0.712000 5
154671.313000 496363.438000 0.633000 5
154671.203000 496363.625000 0.947000 5
154671.031000 496362.969000 0.865000 5
154670.969000 496363.000000 0.832000 5
154671.109000 496363.281000 0.769000 5
154670.797000 496363.688000 1.033000 5
154670.813000 496363.656000 1.045000 5
154670.891000 496363.313000 0.889000 5
154670.719000 496362.625000 0.510000 5
154670.438000 496362.344000 0.329000 5
154670.375000 496362.375000 0.298000 5
154670.625000 496363.063000 0.900000 5
154670.641000 496362.938000 0.883000 5
154670.531000 496362.719000 0.802000 5
154670.297000 496362.750000 0.593000 5
154670.219000 496363.031000 0.844000 5
154670.203000 496362.875000 0.743000 5
154669.406000 496363.188000 -0.171000 5
154669.047000 496363.375000 -0.962000 5
154669.188000 496364.094000 -1.432000 5
154669.328000 496364.000000 -1.488000 5
154668.969000 496363.719000 -1.165000 5
154668.484000 496363.844000 0.679000 5
154669.781000 496363.000000 0.725000 5
154669.813000 496363.219000 0.839000 5
154669.328000 496363.531000 -0.092000 5
154668.563000 496363.719000 0.705000 5
154668.891000 496363.688000 0.917000 5
154668.219000 496363.531000 0.587000 5
154669.031000 496363.469000 0.547000 5
154668.406000 496363.500000 0.665000 5
154669.109000 496363.188000 0.826000 5
154668.797000 496363.344000 0.587000 5
154668.641000 496363.375000 0.525000 5
154668.328000 496363.219000 0.518000 5
154668.297000 496363.188000 0.329000 5
154668.719000 496363.063000 0.643000 5
154668.719000 496363.063000 0.557000 5
154668.375000 496362.906000 0.297000 5
154670.109000 496362.531000 0.437000 5
154668.797000 496362.781000 0.492000 5
154669.484000 496362.969000 0.223000 5
154669.969000 496362.594000 0.524000 5
154669.016000 496362.844000 0.487000 5
154669.484000 496362.906000 0.122000 5
154670.047000 496362.219000 0.063000 5
154669.172000 496362.844000 0.426000 5
154670.031000 496362.219000 0.260000 5
154669.688000 496362.656000 0.374000 5
154669.547000 496362.594000 0.497000 5
154669.391000 496362.625000 0.099000 5
154669.609000 496362.375000 0.568000 5
154669.250000 496362.500000 0.434000 5
154669.641000 496362.250000 0.399000 5
154669.313000 496362.344000 0.456000 5
154669.531000 496362.031000 0.185000 5
154668.938000 496362.500000 0.331000 5
154668.875000 496362.438000 0.406000 5
154669.234000 496362.031000 0.232000 5
154668.453000 496362.563000 0.077000 5
154667.922000 496362.875000 -0.596000 5
154667.875000 496363.000000 -0.748000 5
154668.844000 496362.188000 0.118000 5
154668.547000 496362.344000 0.004000 5
154668.953000 496362.094000 0.077000 5
154668.531000 496362.188000 -0.105000 5
154668.766000 496361.844000 -0.269000 5
154669.109000 496361.406000 -0.713000 5
154668.688000 496361.594000 -0.388000 5
154668.672000 496361.500000 -0.306000 5
154669.047000 496361.313000 -0.475000 5
154668.594000 496361.156000 -0.664000 5
154668.422000 496360.688000 -1.390000 5
154668.094000 496360.563000 -1.746000 5
154668.109000 496360.688000 -1.468000 5
154668.016000 496360.906000 -1.444000 5
154667.719000 496360.844000 -1.534000 5
154668.203000 496361.031000 -1.103000 5
154668.297000 496361.375000 -0.766000 5
154668.047000 496362.156000 -0.896000 5
154668.438000 496361.969000 -1.631000 5
154668.109000 496362.375000 -2.464000 5
154668.188000 496362.688000 -2.658000 5
154668.094000 496362.313000 -3.465000 5
154668.266000 496363.000000 -3.288000 5
154668.344000 496363.281000 -3.489000 5
154667.984000 496362.563000 -2.597000 5
154668.484000 496362.406000 -2.413000 5
154668.063000 496362.250000 -2.295000 5
154668.625000 496361.813000 -1.772000 5
154668.266000 496361.344000 -0.882000 5
154668.188000 496361.719000 -0.663000 5
154668.125000 496362.000000 -0.899000 5
154667.156000 496361.188000 -1.289000 5
154667.563000 496361.031000 -1.296000 5
154667.484000 496361.219000 -1.500000 5
154667.969000 496361.844000 -0.777000 5
154667.797000 496361.156000 -1.120000 5
154667.922000 496361.281000 -0.938000 5
154667.484000 496361.344000 -1.335000 5
154667.875000 496361.469000 -1.080000 5
154667.844000 496361.594000 -1.078000 5
154667.078000 496361.531000 -1.076000 5
154667.766000 496361.906000 -0.920000 5
154668.125000 496362.438000 -1.385000 5
154667.406000 496361.688000 -1.059000 5
154667.672000 496361.906000 -0.995000 5
154667.141000 496361.625000 -1.941000 5
154667.016000 496361.781000 -2.018000 5
154667.828000 496362.469000 -1.540000 5
154667.750000 496362.188000 -1.503000 5
154667.625000 496362.531000 -1.491000 5
154667.344000 496361.969000 -1.411000 5
154667.391000 496362.594000 -1.324000 5
154667.172000 496362.656000 -1.245000 5
154666.422000 496363.063000 -1.669000 5
154666.047000 496363.875000 -1.847000 5
154666.203000 496363.250000 -1.581000 5
154666.188000 496363.875000 -1.709000 5
154666.391000 496364.406000 -1.654000 5
154666.469000 496364.063000 -1.507000 5
154666.969000 496364.000000 -1.339000 5
154667.141000 496363.094000 -1.098000 5
154667.078000 496363.063000 -0.014000 5
154666.453000 496364.125000 -0.238000 5
154667.156000 496363.156000 0.013000 5
154666.594000 496363.531000 -0.293000 5
154667.469000 496363.219000 -0.400000 5
154666.813000 496363.406000 -0.236000 5
154667.563000 496363.281000 -0.403000 5
154666.688000 496364.125000 -0.273000 5
154667.000000 496363.375000 -0.186000 5
154666.922000 496363.719000 -0.080000 5
154667.234000 496363.469000 -0.182000 5
154666.906000 496363.750000 -0.171000 5
154667.375000 496363.563000 -0.194000 5
154667.406000 496364.125000 -0.080000 5
154667.313000 496363.781000 -0.187000 5
154668.000000 496363.188000 -0.587000 5
154667.797000 496363.313000 -0.503000 5
154668.734000 496364.656000 -1.047000 5
154667.719000 496363.688000 -0.170000 5
154667.734000 496363.969000 -0.169000 5
154668.375000 496363.406000 -0.946000 5
154667.641000 496364.000000 -0.345000 5
154668.234000 496363.469000 -0.890000 5
154668.078000 496363.469000 -0.847000 5
154668.516000 496363.969000 -0.611000 5
154668.531000 496364.000000 -1.910000 5
154668.172000 496363.719000 -1.840000 5
154668.531000 496363.875000 -1.956000 5
154668.375000 496364.500000 -2.192000 5
154668.453000 496364.188000 -2.031000 5
154667.594000 496364.188000 -2.330000 5
154668.234000 496364.063000 -2.458000 5
154668.422000 496363.594000 -3.540000 5
154667.766000 496364.063000 -3.488000 5
154668.516000 496363.906000 -3.347000 5
154668.469000 496364.094000 -3.322000 5
154669.281000 496363.719000 -2.432000 5
154668.609000 496364.281000 -2.326000 5
154669.688000 496363.750000 -2.478000 5
154669.828000 496364.313000 -3.120000 5
154668.844000 496364.250000 -2.251000 5
154669.016000 496364.188000 -2.107000 5
154669.125000 496364.375000 -2.284000 5
154669.391000 496364.250000 -2.348000 5
154669.531000 496364.375000 -2.561000 5
154670.641000 496364.563000 -3.386000 5
154669.453000 496364.531000 -2.957000 5
154670.297000 496364.344000 -3.035000 5
154670.734000 496364.906000 -3.495000 5
154669.313000 496365.313000 -2.597000 5
154668.922000 496365.531000 -3.480000 5
154668.719000 496365.938000 -3.455000 5
154669.016000 496365.906000 -3.271000 5
154669.156000 496365.938000 -2.719000 5
154669.766000 496366.594000 -3.108000 5
154669.656000 496366.656000 -2.683000 5
154669.344000 496366.750000 -2.596000 5
154670.563000 496364.688000 -3.401000 5
154669.422000 496365.719000 -3.031000 5
154669.578000 496365.781000 -2.879000 5
154670.234000 496364.656000 -3.300000 5
154670.484000 496365.000000 -3.406000 5
154669.813000 496364.750000 -2.865000 5
154669.703000 496365.500000 -2.746000 5
154669.734000 496365.063000 -2.836000 5
154670.000000 496364.969000 -2.745000 5
154669.797000 496365.813000 -2.879000 5
154670.078000 496365.313000 -3.096000 5
154670.813000 496365.219000 -3.500000 5
154669.953000 496366.406000 -3.029000 5
154669.859000 496366.219000 -3.275000 5
154669.859000 496366.094000 -3.407000 5
154670.391000 496365.313000 -3.433000 5
154669.922000 496365.938000 -3.090000 5
154670.000000 496365.625000 -3.299000 5
154670.172000 496365.594000 -3.388000 5
154670.172000 496366.313000 -3.420000 5
154670.328000 496365.688000 -3.429000 5
154670.469000 496365.656000 -3.421000 5
154670.328000 496366.219000 -3.290000 5
154670.250000 496365.938000 -3.407000 5
154670.266000 496365.969000 -3.427000 5
154671.516000 496366.844000 -3.432000 5
154671.234000 496366.750000 -3.475000 5
154672.406000 496365.406000 -3.216000 5
154671.563000 496366.656000 -3.409000 5
154672.625000 496365.531000 -2.756000 5
154672.297000 496365.438000 -3.192000 5
154672.969000 496365.906000 -2.919000 5
154671.469000 496366.313000 -3.274000 5
154671.594000 496366.531000 -3.420000 5
154672.906000 496365.938000 -3.010000 5
154672.656000 496366.344000 -3.569000 5
154671.953000 496366.563000 -3.516000 5
154672.141000 496365.969000 -3.435000 5
154671.891000 496366.250000 -3.351000 5
154672.078000 496366.406000 -3.445000 5
154672.219000 496365.750000 -2.880000 5
154671.984000 496366.781000 -2.387000 5
154672.156000 496366.063000 -2.875000 5
154671.984000 496366.625000 -2.326000 5
154671.672000 496366.219000 -2.499000 5
154671.891000 496366.313000 -2.399000 5
154672.438000 496365.531000 -1.017000 5
154672.078000 496365.719000 -1.393000 5
154671.922000 496365.094000 -1.895000 5
154671.391000 496364.500000 -1.370000 5
154670.875000 496365.250000 -0.217000 5
154670.344000 496365.188000 -0.589000 5
154669.484000 496364.656000 -0.872000 5
154670.125000 496365.094000 -0.894000 5
154669.953000 496364.750000 -1.324000 5
154669.875000 496364.531000 -1.290000 5
154669.859000 496364.406000 -1.176000 5
154670.281000 496364.438000 -1.019000 5
154671.344000 496364.156000 -0.807000 5
154671.266000 496363.844000 -0.481000 5
154670.594000 496364.375000 -1.076000 5
154671.172000 496364.000000 -0.709000 5
154670.922000 496364.219000 -0.904000 5
154670.688000 496364.156000 -0.961000 5
154670.266000 496363.094000 -0.989000 5
154670.266000 496362.875000 -1.635000 5
154669.063000 496363.313000 -2.128000 5
154668.563000 496362.094000 -1.841000 5
154669.453000 496362.844000 -1.915000 5
154669.203000 496362.719000 -1.887000 5
154670.328000 496362.594000 -1.617000 5
154670.094000 496362.438000 -1.162000 5
154670.672000 496361.563000 -1.398000 5
154670.563000 496361.625000 -1.311000 5
154669.578000 496362.250000 -1.771000 5
154670.344000 496361.938000 -1.411000 5
154670.000000 496362.094000 -1.542000 5
154670.141000 496361.844000 -1.542000 5
154670.250000 496361.594000 -1.260000 5
154670.219000 496361.531000 -1.285000 5
154668.969000 496361.000000 -0.978000 5
154670.500000 496360.938000 -1.288000 5
154670.453000 496360.531000 -1.656000 5
154669.266000 496361.063000 -0.874000 5
154670.406000 496360.563000 -1.625000 5
154669.203000 496361.063000 -1.015000 5
154670.297000 496361.188000 -1.411000 5
154670.375000 496360.875000 -1.369000 5
154669.813000 496361.500000 -1.605000 5
154669.828000 496361.438000 -1.713000 5
154670.094000 496361.000000 -1.318000 5
154669.891000 496361.156000 -1.248000 5
154669.969000 496360.844000 -1.433000 5
154670.000000 496360.656000 -1.478000 5
154668.875000 496360.625000 -1.630000 5
154669.672000 496360.781000 -1.605000 5
154670.047000 496360.563000 -1.349000 5
154669.188000 496360.719000 -1.169000 5
154668.922000 496360.563000 -1.655000 5
154669.281000 496360.719000 -1.504000 5
154669.594000 496360.500000 -1.535000 5
154669.672000 496359.344000 -1.782000 5
154670.422000 496359.313000 -1.955000 5
154670.344000 496359.000000 -1.827000 5
154669.594000 496359.406000 -1.803000 5
154669.516000 496359.750000 -2.046000 5
154669.578000 496359.031000 -2.303000 5
154668.922000 496359.656000 -2.401000 5
154668.734000 496359.375000 -2.411000 5
154668.813000 496359.031000 -2.314000 5
154668.656000 496358.688000 -2.688000 5
154668.891000 496358.750000 -1.940000 5
154668.266000 496358.063000 -2.274000 5
154668.547000 496358.656000 -1.735000 5
154668.500000 496358.063000 -2.270000 5
154668.578000 496358.406000 -1.891000 5
154668.703000 496358.000000 -1.955000 5
154668.953000 496358.469000 -2.111000 5
154669.109000 496357.844000 -1.403000 5
154669.000000 496358.250000 -2.130000 5
154668.938000 496357.969000 -1.782000 5
154670.063000 496357.438000 -2.366000 5
154670.516000 496358.594000 -1.586000 5
154670.625000 496358.500000 -1.844000 5
154669.906000 496358.063000 -2.007000 5
154669.984000 496357.750000 -2.076000 5
154670.094000 496358.031000 -1.910000 5
154670.656000 496357.938000 -1.526000 5
154671.047000 496356.344000 -2.060000 5
154670.984000 496355.438000 -2.057000 5
154671.516000 496355.875000 -2.458000 5
154671.609000 496356.219000 -1.800000 5
154671.531000 496356.031000 -2.077000 5
154671.141000 496356.031000 -2.230000 5
154670.766000 496356.188000 -2.228000 5
154670.859000 496356.188000 -2.172000 5
154671.438000 496356.406000 -1.583000 5
154670.359000 496357.500000 -2.110000 5
154671.234000 496356.406000 -1.840000 5
154670.438000 496357.531000 -1.924000 5
154670.750000 496357.594000 -1.822000 5
154670.734000 496357.344000 -2.096000 5
154670.906000 496356.938000 -2.072000 5
154671.031000 496356.875000 -1.997000 5
154670.813000 496357.281000 -1.931000 5
154670.828000 496357.688000 -1.769000 5
154671.547000 496358.844000 -1.718000 5
154670.984000 496358.281000 -1.711000 5
154670.984000 496358.313000 -1.883000 5
154671.969000 496357.344000 -2.055000 5
154671.922000 496357.438000 -2.205000 5
154671.375000 496358.156000 -1.760000 5
154671.563000 496357.688000 -1.920000 5
154671.484000 496357.750000 -1.959000 5
154671.406000 496358.094000 -2.020000 5
154673.297000 496358.125000 -2.032000 5
154673.344000 496358.313000 -2.005000 5
154673.219000 496358.438000 -1.917000 5
154673.063000 496358.750000 -2.057000 5
154673.141000 496359.063000 -1.833000 5
154672.750000 496359.156000 -1.829000 5
154674.672000 496359.969000 -1.613000 5
154675.172000 496359.719000 -2.053000 5
154675.484000 496358.781000 -2.180000 5
154676.016000 496359.313000 -2.338000 5
154676.203000 496359.906000 -1.949000 5
154676.109000 496359.563000 -2.073000 5
154675.938000 496359.625000 -2.054000 5
154675.328000 496359.063000 -1.956000 5
154675.734000 496359.750000 -1.764000 5
154675.250000 496359.469000 -2.303000 5
154674.906000 496359.594000 -1.807000 5
154675.078000 496360.094000 -1.509000 5
154673.203000 496359.344000 -2.163000 5
154673.344000 496359.188000 -1.714000 5
154673.984000 496359.250000 -2.011000 5
154673.281000 496359.500000 -1.996000 5
154673.297000 496359.688000 -1.739000 5
154673.734000 496359.438000 -1.666000 5
154674.078000 496359.594000 -1.813000 5
154674.234000 496360.188000 -1.816000 5
154674.859000 496361.031000 -2.000000 5
154673.875000 496361.875000 -1.644000 5
154673.891000 496361.969000 -1.581000 5
154674.188000 496361.938000 -1.334000 5
154674.719000 496362.094000 -1.839000 5
154674.281000 496361.906000 -1.416000 5
154675.625000 496364.000000 -1.358000 5
154675.688000 496363.938000 -1.338000 5
154675.906000 496363.438000 -1.775000 5
154675.266000 496363.938000 -0.945000 5
154675.156000 496363.750000 -0.750000 5
154675.766000 496363.594000 -1.688000 5
154674.813000 496362.438000 -1.359000 5
154674.891000 496362.438000 -1.557000 5
154675.531000 496363.656000 -1.399000 5
154675.000000 496363.563000 -0.952000 5
154675.344000 496363.625000 -1.273000 5
154675.172000 496362.813000 -1.709000 5
154675.453000 496363.313000 -1.397000 5
154675.359000 496363.000000 -1.544000 5
154675.422000 496363.281000 -1.417000 5
154674.891000 496362.781000 -1.421000 5
154674.984000 496363.094000 -1.415000 5
154674.813000 496362.750000 -1.456000 5
154674.734000 496363.063000 -1.539000 5
154673.219000 496363.000000 -1.389000 5
