152621.656000 497675.625000 2.427000 4
152620.594000 497674.875000 1.493000 4
152619.578000 497677.250000 1.701000 4
152620.938000 497676.188000 1.134000 4
152620.109000 497676.094000 1.534000 4
152619.922000 497677.000000 1.782000 4
152619.859000 497676.781000 1.180000 4
152621.422000 497676.500000 2.134000 4
152621.375000 497676.281000 1.315000 4
152620.344000 497677.031000 1.698000 4
152621.000000 497676.500000 1.502000 4
152621.078000 497676.781000 1.815000 4
152622.031000 497677.125000 1.044000 4
152621.609000 497677.281000 1.161000 4
152621.797000 497678.031000 0.592000 4
152622.313000 497678.250000 0.017000 4
152622.469000 497677.344000 0.858000 4
152622.750000 497676.781000 0.154000 4
152622.438000 497678.813000 0.727000 4
152621.344000 497677.844000 1.467000 4
152621.875000 497678.344000 0.666000 4
152621.422000 497678.219000 1.033000 4
152621.500000 497678.500000 1.225000 4
152623.234000 497680.469000 1.858000 4
152622.219000 497679.719000 2.119000 4
152622.297000 497680.000000 2.327000 4
152622.484000 497678.969000 1.758000 4
152622.641000 497679.594000 2.026000 4
152624.078000 497679.031000 2.579000 4
152622.563000 497679.250000 1.933000 4
152623.172000 497678.500000 1.648000 4
152624.016000 497678.781000 2.214000 4
152623.719000 497679.219000 2.770000 4
152623.641000 497678.875000 2.698000 4
152623.375000 497679.313000 2.726000 4
152622.875000 497679.000000 0.833000 4
152623.156000 497680.125000 1.971000 4
152623.094000 497679.844000 1.714000 4
152623.484000 497679.781000 1.805000 4
152623.016000 497679.563000 1.438000 4
152623.719000 497679.250000 0.555000 4
152624.000000 497680.406000 1.449000 4
152624.438000 497680.531000 1.377000 4
152623.922000 497680.094000 1.496000 4
152623.859000 497679.781000 1.551000 4
152625.016000 497679.875000 0.758000 4
152624.703000 497680.281000 1.658000 4
152624.359000 497680.219000 1.349000 4
152624.203000 497679.563000 1.533000 4
152624.281000 497679.844000 1.649000 4
152624.641000 497680.031000 1.374000 4
152624.125000 497679.250000 1.213000 4
152625.328000 497678.031000 1.247000 4
152625.109000 497678.625000 1.529000 4
152625.031000 497678.281000 1.389000 4
152624.828000 497679.125000 1.257000 4
152624.766000 497678.875000 0.991000 4
152623.891000 497678.281000 1.252000 4
152625.156000 497677.313000 1.365000 4
152624.656000 497676.781000 0.957000 4
152625.266000 497677.781000 0.751000 4
152625.109000 497677.125000 0.752000 4
152624.969000 497678.000000 1.193000 4
152624.516000 497677.813000 1.445000 4
152624.891000 497677.750000 0.864000 4
152623.813000 497678.000000 1.041000 4
152622.813000 497677.063000 0.268000 4
152623.859000 497676.875000 0.947000 4
152624.234000 497676.719000 0.293000 4
152623.938000 497677.156000 0.937000 4
152622.984000 497677.750000 0.336000 4
152623.156000 497677.000000 0.383000 4
152622.906000 497677.438000 -0.121000 4
152623.547000 497676.938000 -0.609000 4
152624.422000 497677.469000 -0.373000 4
152623.266000 497678.875000 -0.534000 4
152624.063000 497677.656000 0.074000 4
152623.453000 497678.219000 -1.183000 4
152622.641000 497678.094000 -1.564000 4
152622.969000 497677.719000 -1.756000 4
152623.344000 497677.750000 -0.337000 4
152623.516000 497678.438000 -0.602000 4
152623.797000 497677.938000 -0.526000 4
152623.641000 497678.969000 0.315000 4
152623.578000 497678.688000 -0.221000 4
152624.063000 497678.969000 -0.940000 4
152624.531000 497679.594000 0.119000 4
152624.438000 497679.219000 0.309000 4
152624.234000 497678.375000 -0.336000 4
152624.500000 497677.781000 -0.320000 4
152625.078000 497678.500000 0.145000 4
152625.422000 497678.375000 -0.914000 4
152625.656000 497678.094000 -0.890000 4
152621.500000 497661.313000 0.452000 5
152621.406000 497662.156000 0.933000 5
152621.016000 497662.094000 1.130000 5
152620.547000 497661.813000 1.881000 5
152619.969000 497662.500000 2.184000 5
152619.391000 497661.750000 2.203000 5
152619.156000 497660.781000 2.228000 5
152618.406000 497660.969000 1.697000 5
152618.234000 497661.844000 1.304000 5
152617.922000 497662.375000 0.547000 5
152618.719000 497662.219000 -0.036000 5
152619.563000 497662.438000 -0.480000 5
152620.094000 497661.688000 -0.270000 5
152619.859000 497660.719000 -0.240000 5
152619.266000 497661.250000 -0.832000 5
152618.484000 497661.281000 -0.375000 5
152618.781000 497660.813000 0.452000 5
152618.969000 497660.063000 0.373000 5
152618.141000 497659.906000 0.328000 5
152617.438000 497660.375000 0.683000 5
152617.234000 497661.313000 0.719000 5
152617.313000 497661.594000 0.916000 5
152617.188000 497661.063000 0.444000 5
152617.828000 497660.156000 1.286000 5
152618.594000 497660.000000 1.363000 5
152619.375000 497660.031000 1.481000 5
152619.734000 497660.188000 1.085000 5
152620.219000 497660.469000 1.900000 5
152621.063000 497660.750000 1.519000 5
152620.984000 497660.438000 1.199000 5
152620.344000 497661.000000 0.777000 5
152620.859000 497659.938000 0.467000 5
152620.031000 497659.750000 0.225000 5
152619.969000 497659.469000 -0.071000 5
152620.406000 497659.594000 0.287000 5
152621.188000 497660.063000 0.085000 5
152620.688000 497660.781000 1.381000 5
152620.297000 497660.813000 1.972000 5
152620.609000 497660.438000 1.273000 5
152620.484000 497659.906000 0.624000 5
152620.531000 497660.156000 0.954000 5
152620.109000 497660.031000 0.722000 5
152619.656000 497659.906000 1.101000 5
152617.516000 497660.719000 0.811000 5
152617.375000 497660.156000 0.283000 5
152618.797000 497659.375000 0.561000 5
152619.016000 497658.625000 0.014000 5
152618.422000 497657.844000 0.034000 5
152618.219000 497658.469000 0.786000 5
152617.453000 497658.688000 0.366000 5
152616.906000 497658.250000 0.004000 5
152615.984000 497658.000000 0.146000 5
152616.219000 497657.156000 0.387000 5
152616.359000 497657.719000 1.165000 5
152616.516000 497658.344000 1.132000 5
152616.859000 497658.094000 1.092000 5
152616.016000 497658.125000 1.416000 5
152616.797000 497657.781000 1.120000 5
152616.422000 497658.000000 1.301000 5
152615.766000 497657.125000 -0.438000 5
152615.266000 497656.500000 -0.225000 5
152615.125000 497656.000000 -1.034000 5
152615.844000 497655.656000 -0.479000 5
152616.328000 497655.938000 0.327000 5
152616.906000 497656.438000 0.522000 5
152617.078000 497655.594000 1.030000 5
152617.609000 497656.063000 1.481000 5
152618.266000 497655.563000 1.040000 5
152617.922000 497655.844000 0.240000 5
152618.125000 497655.000000 0.053000 5
152618.938000 497655.281000 -0.157000 5
152619.469000 497655.844000 -0.281000 5
152619.703000 497656.781000 -0.183000 5
152619.484000 497657.500000 0.246000 5
152619.844000 497657.375000 -0.052000 5
152619.344000 497656.969000 -0.283000 5
152618.563000 497656.781000 -0.878000 5
152618.125000 497656.656000 -0.846000 5
152617.297000 497656.469000 -0.815000 5
152617.078000 497657.156000 -0.278000 5
152617.625000 497656.094000 -0.860000 5
152618.844000 497656.625000 -0.734000 5
152619.781000 497657.063000 0.001000 5
152619.266000 497656.625000 -0.435000 5
152619.125000 497656.063000 -0.883000 5
152619.641000 497656.500000 -0.518000 5
152619.188000 497656.313000 -0.516000 5
152619.547000 497656.125000 -0.360000 5
152619.016000 497655.594000 -0.016000 5
152617.719000 497655.000000 -0.715000 5
152616.891000 497654.844000 -0.416000 5
152616.391000 497654.344000 -0.971000 5
152616.438000 497654.563000 -0.092000 5
152616.813000 497654.531000 -0.678000 5
152617.219000 497654.438000 -0.479000 5
152618.000000 497654.500000 -0.896000 5
152617.500000 497654.125000 -1.598000 5
152617.859000 497653.969000 -1.768000 5
152618.578000 497653.875000 -1.724000 5
152617.922000 497654.219000 -1.314000 5
152617.297000 497654.813000 -0.725000 5
152617.641000 497654.719000 -0.989000 5
152618.078000 497654.813000 -0.526000 5
152617.516000 497655.688000 -0.325000 5
152617.672000 497656.281000 -0.123000 5
152618.156000 497656.781000 0.594000 5
152618.641000 497657.094000 1.376000 5
152618.031000 497657.719000 1.488000 5
152617.516000 497657.375000 1.903000 5
152618.359000 497657.594000 1.754000 5
152618.734000 497657.500000 1.014000 5
152618.281000 497657.281000 1.595000 5
152618.922000 497656.906000 1.514000 5
152618.563000 497656.781000 1.406000 5
152617.969000 497657.469000 0.949000 5
152618.797000 497656.406000 0.721000 5
152618.500000 497656.531000 0.842000 5
152617.859000 497655.594000 -0.264000 5
152618.469000 497655.125000 0.264000 5
152618.563000 497655.469000 0.414000 5
152618.344000 497655.906000 0.800000 5
152618.109000 497656.594000 1.849000 5
152617.719000 497656.438000 1.110000 5
152617.813000 497655.375000 1.294000 5
152617.531000 497655.719000 1.674000 5
152616.719000 497655.656000 1.406000 5
152616.813000 497656.031000 0.845000 5
152616.656000 497655.438000 0.583000 5
152616.375000 497656.156000 -1.135000 5
152616.031000 497654.719000 -0.460000 5
152616.625000 497655.313000 -0.876000 5
152615.703000 497655.125000 -1.191000 5
152616.125000 497655.156000 -1.111000 5
152616.203000 497655.406000 -0.766000 5
152615.766000 497655.375000 -0.715000 5
152615.984000 497656.219000 -0.023000 5
152615.438000 497655.844000 -0.559000 5
152615.531000 497656.219000 -0.856000 5
152615.188000 497656.219000 -0.533000 5
152615.688000 497656.875000 -0.852000 5
152616.406000 497656.281000 0.240000 5
152616.266000 497657.375000 1.206000 5
152616.063000 497656.563000 -0.017000 5
152616.719000 497657.531000 0.762000 5
152616.500000 497656.625000 0.172000 5
152616.156000 497656.906000 -0.156000 5
152616.641000 497657.156000 0.758000 5
152616.563000 497656.906000 0.472000 5
152615.516000 497657.500000 -0.301000 5
152615.563000 497657.719000 0.645000 5
152615.719000 497658.375000 0.512000 5
152615.891000 497657.656000 0.229000 5
152615.656000 497658.094000 0.261000 5
152617.313000 497658.094000 -0.046000 5
152617.047000 497658.844000 0.570000 5
152617.391000 497658.375000 0.168000 5
152618.109000 497658.063000 1.205000 5
152617.797000 497658.469000 0.935000 5
152617.891000 497657.188000 0.422000 5
152617.594000 497657.688000 -0.327000 5
152619.047000 497657.406000 0.450000 5
152618.828000 497657.875000 0.792000 5
152617.672000 497658.000000 -0.090000 5
152618.688000 497657.313000 -0.143000 5
152619.141000 497657.813000 0.041000 5
152618.500000 497658.156000 -0.111000 5
152619.203000 497658.063000 0.395000 5
152618.922000 497658.250000 0.318000 5
152619.359000 497658.719000 0.458000 5
152618.531000 497659.750000 0.857000 5
152619.313000 497659.813000 0.932000 5
152619.234000 497659.531000 0.642000 5
152618.891000 497659.719000 0.648000 5
152618.109000 497661.344000 -0.021000 5
152619.000000 497661.656000 -0.855000 5
152618.922000 497661.313000 -0.754000 5
152619.344000 497661.563000 -0.949000 5
152619.625000 497659.813000 -0.359000 5
152620.578000 497660.281000 0.010000 5
152619.063000 497660.438000 -0.180000 5
152619.156000 497660.813000 -0.211000 5
152619.484000 497660.531000 0.237000 5
152620.219000 497660.469000 -0.218000 5
152619.797000 497660.438000 -0.567000 5
152619.594000 497660.969000 -0.528000 5
152620.906000 497661.625000 -0.353000 5
152619.938000 497661.031000 -0.034000 5
152619.688000 497661.313000 -0.583000 5
152620.547000 497661.813000 -0.428000 5
152620.453000 497661.469000 -0.256000 5
152620.031000 497661.375000 -0.384000 5
152619.750000 497661.594000 -0.380000 5
152619.844000 497661.938000 -0.564000 5
152618.578000 497661.625000 -0.622000 5
152619.469000 497662.094000 -0.141000 5
152618.656000 497661.969000 -0.567000 5
152618.203000 497661.656000 -0.006000 5
152618.500000 497662.844000 0.774000 5
152619.250000 497662.656000 1.069000 5
152618.828000 497662.625000 1.781000 5
152619.750000 497663.219000 0.819000 5
152620.453000 497663.094000 1.484000 5
152619.422000 497663.344000 0.877000 5
152618.563000 497663.125000 1.098000 5
152617.766000 497661.750000 0.374000 5
152618.016000 497662.719000 0.426000 5
152617.859000 497662.094000 0.359000 5
152617.672000 497661.375000 0.671000 5
152617.391000 497661.906000 0.943000 5
152618.375000 497662.344000 1.792000 5
152618.609000 497661.750000 0.954000 5
152618.313000 497662.156000 1.191000 5
152617.703000 497661.500000 2.048000 5
152618.672000 497660.344000 1.095000 5
152617.547000 497660.875000 1.835000 5
152617.625000 497661.188000 1.878000 5
152618.266000 497660.344000 1.544000 5
152617.969000 497660.750000 1.875000 5
152618.047000 497661.063000 1.844000 5
152619.000000 497660.188000 1.566000 5
152619.797000 497660.438000 1.694000 5
152618.484000 497661.250000 1.951000 5
152619.438000 497660.313000 1.707000 5
152619.859000 497660.750000 1.984000 5
152618.734000 497660.625000 1.762000 5
152619.078000 497660.500000 1.882000 5
152619.938000 497661.031000 2.110000 5
152618.656000 497661.969000 1.738000 5
152618.891000 497661.219000 2.069000 5
152618.984000 497661.594000 1.648000 5
152619.219000 497661.094000 2.179000 5
152619.656000 497661.219000 2.174000 5
152619.047000 497661.875000 2.066000 5
152619.313000 497661.406000 2.286000 5
152619.297000 497662.844000 2.206000 5
152619.219000 497662.500000 2.166000 5
152619.469000 497662.063000 2.179000 5
152619.547000 497662.406000 2.143000 5
152619.625000 497662.688000 2.331000 5
152620.063000 497662.844000 2.075000 5
152619.875000 497662.094000 2.422000 5
152620.000000 497661.313000 2.356000 5
152619.750000 497661.563000 2.101000 5
152620.766000 497661.031000 1.690000 5
152620.375000 497661.156000 1.892000 5
152620.250000 497662.313000 2.216000 5
152620.172000 497661.969000 2.336000 5
152620.469000 497661.469000 1.931000 5
152620.797000 497662.844000 1.517000 5
152620.844000 497661.375000 1.461000 5
152620.719000 497662.500000 1.615000 5
152621.094000 497662.406000 1.101000 5
152621.328000 497661.844000 0.997000 5
152621.328000 497660.625000 0.353000 5
152621.234000 497661.500000 0.893000 5
152621.406000 497660.906000 0.798000 5
152621.172000 497661.250000 0.429000 5
152617.344000 497650.563000 0.427000 6
152616.625000 497650.563000 1.029000 6
152616.422000 497651.219000 1.735000 6
152615.797000 497651.969000 1.947000 6
152615.938000 497652.500000 2.649000 6
152615.828000 497652.094000 3.435000 6
152615.313000 497651.813000 4.190000 6
152615.078000 497650.875000 3.957000 6
152614.672000 497650.938000 3.049000 6
152614.969000 497650.406000 2.448000 6
152615.672000 497649.875000 2.361000 6
152615.250000 497649.719000 1.548000 6
152615.719000 497650.063000 0.901000 6
152615.516000 497650.813000 1.022000 6
152615.266000 497651.594000 0.885000 6
152614.516000 497652.094000 0.499000 6
152614.578000 497652.344000 1.445000 6
152614.781000 497651.375000 -0.061000 6
152615.641000 497651.344000 -0.443000 6
152613.984000 497651.375000 -0.397000 6
152613.750000 497650.438000 -0.616000 6
152613.391000 497650.688000 -0.274000 6
152613.188000 497651.469000 0.245000 6
152613.422000 497652.406000 0.388000 6
152613.344000 497652.063000 0.469000 6
152613.266000 497651.750000 0.423000 6
152613.453000 497650.938000 0.154000 6
152613.844000 497650.781000 -0.780000 6
152613.922000 497651.125000 -0.958000 6
152614.672000 497650.938000 -1.399000 6
152613.641000 497651.625000 -0.007000 6
152613.547000 497651.313000 -0.103000 6
152615.063000 497650.781000 -0.231000 6
152614.953000 497650.375000 0.321000 6
152614.719000 497651.094000 -0.532000 6
152615.125000 497651.094000 -0.113000 6
152613.703000 497651.938000 0.076000 6
152613.781000 497652.250000 0.377000 6
152615.063000 497652.500000 1.162000 6
152614.922000 497651.938000 0.276000 6
152614.813000 497651.500000 1.290000 6
152615.188000 497651.313000 0.791000 6
152616.016000 497649.625000 1.197000 6
152614.781000 497649.656000 0.961000 6
152615.422000 497650.438000 1.468000 6
152615.547000 497649.375000 1.182000 6
152616.219000 497650.406000 2.717000 6
152616.625000 497650.563000 3.398000 6
152616.422000 497651.250000 3.885000 6
152616.344000 497650.938000 3.909000 6
152616.563000 497650.344000 2.700000 6
152616.078000 497649.844000 2.049000 6
152615.594000 497649.563000 2.247000 6
152615.734000 497650.156000 2.791000 6
152615.813000 497650.469000 2.553000 6
152614.313000 497651.250000 2.340000 6
152613.563000 497651.344000 2.006000 6
152613.641000 497651.625000 2.184000 6
152614.234000 497650.938000 1.928000 6
152614.609000 497650.656000 2.673000 6
152615.016000 497650.625000 3.061000 6
152615.938000 497650.938000 3.981000 6
152616.000000 497651.188000 4.348000 6
152615.109000 497652.688000 4.227000 6
152615.297000 497653.438000 3.680000 6
152616.156000 497653.406000 3.286000 6
152614.750000 497653.031000 3.166000 6
152614.672000 497652.688000 3.268000 6
152615.750000 497653.563000 3.165000 6
152614.828000 497653.344000 3.270000 6
152615.656000 497653.219000 3.465000 6
152615.219000 497653.094000 3.706000 6
152614.813000 497651.469000 3.649000 6
152615.578000 497651.063000 4.122000 6
152615.141000 497651.125000 4.266000 6
152615.641000 497651.281000 4.517000 6
152615.047000 497652.375000 4.111000 6
152615.219000 497651.438000 4.213000 6
152616.094000 497651.594000 3.896000 6
152616.281000 497652.344000 3.454000 6
152616.719000 497652.438000 2.406000 6
152616.984000 497652.031000 1.984000 6
152616.453000 497653.031000 2.931000 6
152616.094000 497653.125000 3.069000 6
152616.359000 497652.688000 2.969000 6
152616.016000 497652.813000 2.844000 6
152616.641000 497652.156000 2.094000 6
152615.313000 497651.844000 1.370000 6
152616.234000 497652.156000 2.411000 6
152615.375000 497652.094000 2.130000 6
152617.250000 497651.469000 2.137000 6
152615.734000 497651.719000 1.397000 6
152615.641000 497651.344000 2.062000 6
152617.188000 497651.188000 2.060000 6
152616.859000 497651.531000 1.188000 6
152616.156000 497651.875000 1.907000 6
152616.828000 497651.375000 2.242000 6
152616.469000 497651.438000 2.342000 6
152616.750000 497651.063000 2.149000 6
152615.797000 497650.438000 0.800000 6
152615.875000 497650.719000 0.648000 6
152616.359000 497650.969000 1.139000 6
152616.547000 497650.281000 0.737000 6
152616.969000 497650.375000 1.161000 6
152617.250000 497650.188000 1.006000 6
152616.906000 497650.125000 0.623000 6
152617.141000 497651.063000 0.722000 6
152612.719000 497641.375000 0.022000 7
152611.813000 497641.188000 0.268000 7
152611.219000 497641.844000 0.549000 7
152610.469000 497642.219000 0.040000 7
152610.281000 497642.844000 0.745000 7
152609.750000 497642.188000 1.081000 7
152610.344000 497641.688000 1.472000 7
152610.469000 497642.219000 2.284000 7
152609.641000 497641.750000 2.200000 7
152611.156000 497641.625000 2.313000 7
152610.563000 497640.875000 2.053000 7
152611.281000 497640.406000 1.672000 7
152611.703000 497640.719000 1.156000 7
152611.625000 497640.375000 1.093000 7
152611.359000 497640.781000 1.577000 7
152610.500000 497640.563000 1.945000 7
152610.984000 497640.906000 2.574000 7
152611.422000 497641.031000 2.062000 7
152611.563000 497641.594000 2.610000 7
152611.500000 497641.281000 2.305000 7
152611.078000 497641.281000 2.311000 7
152611.250000 497642.000000 1.890000 7
152611.766000 497642.406000 1.331000 7
152611.578000 497643.344000 1.323000 7
152611.172000 497643.313000 0.530000 7
152610.516000 497643.844000 0.842000 7
152611.250000 497643.625000 0.603000 7
152612.016000 497643.406000 1.008000 7
152612.500000 497642.156000 0.995000 7
152612.250000 497642.938000 1.365000 7
152611.516000 497643.063000 1.213000 7
152611.922000 497643.031000 1.564000 7
152611.438000 497642.781000 1.028000 7
152612.016000 497642.000000 1.177000 7
152612.172000 497642.625000 1.359000 7
152612.094000 497642.313000 1.378000 7
152611.844000 497642.719000 1.422000 7
152610.141000 497642.344000 2.161000 7
152611.016000 497641.031000 1.537000 7
152610.063000 497642.000000 2.300000 7
152610.891000 497642.156000 1.953000 7
152609.906000 497641.375000 2.069000 7
152610.000000 497641.719000 2.166000 7
152610.641000 497641.188000 1.957000 7
152610.234000 497641.250000 2.075000 7
152610.188000 497641.063000 1.144000 7
152610.734000 497641.531000 2.046000 7
152610.406000 497641.938000 2.091000 7
152610.813000 497641.875000 1.856000 7
152608.953000 497642.250000 0.766000 7
152609.438000 497642.563000 0.077000 7
152609.672000 497643.500000 0.069000 7
152609.391000 497644.063000 -0.641000 7
152609.219000 497644.875000 -1.110000 7
152608.594000 497645.406000 -0.543000 7
152608.422000 497644.719000 -0.379000 7
152607.703000 497644.750000 0.172000 7
152608.172000 497645.313000 0.575000 7
152607.922000 497645.688000 0.529000 7
152607.063000 497645.531000 0.917000 7
152606.828000 497646.281000 1.214000 7
152606.234000 497646.875000 0.723000 7
152606.781000 497647.469000 0.145000 7
152606.156000 497648.031000 0.649000 7
152607.016000 497648.375000 0.651000 7
152606.672000 497648.656000 -0.084000 7
152606.969000 497648.281000 -0.887000 7
152607.609000 497647.750000 -1.346000 7
152606.750000 497647.375000 -1.468000 7
152606.203000 497646.813000 -1.053000 7
152606.109000 497646.406000 -0.442000 7
152606.563000 497646.625000 -0.734000 7
152606.281000 497647.125000 -1.040000 7
152606.656000 497646.969000 -1.033000 7
152606.375000 497647.500000 -1.186000 7
152606.984000 497646.969000 -1.504000 7
152607.391000 497646.906000 -2.121000 7
152607.844000 497647.094000 -1.843000 7
152607.469000 497647.188000 -1.825000 7
152607.063000 497647.313000 -1.456000 7
152607.984000 497647.656000 -1.230000 7
152607.531000 497647.469000 -1.339000 7
152607.766000 497648.406000 -1.115000 7
152607.828000 497648.625000 -0.394000 7
152606.828000 497647.688000 -1.437000 7
152607.141000 497647.625000 -1.266000 7
152607.672000 497648.031000 -0.963000 7
152607.281000 497648.188000 -0.781000 7
152606.594000 497648.375000 -0.371000 7
152607.406000 497648.688000 0.056000 7
152607.094000 497648.719000 0.362000 7
152606.313000 497648.656000 0.931000 7
152605.750000 497648.313000 1.547000 7
152605.484000 497648.500000 2.257000 7
152605.859000 497648.750000 3.050000 7
152606.094000 497649.656000 3.226000 7
152606.953000 497649.781000 3.500000 7
152607.172000 497650.688000 3.803000 7
152606.313000 497650.500000 4.218000 7
152606.219000 497651.469000 4.151000 7
152605.438000 497651.375000 4.621000 7
152605.375000 497651.156000 4.205000 7
152605.750000 497651.219000 4.449000 7
152605.531000 497650.313000 3.925000 7
152605.453000 497650.000000 3.949000 7
152605.672000 497650.906000 4.559000 7
152606.469000 497651.188000 4.321000 7
152606.141000 497651.125000 4.343000 7
152606.063000 497650.813000 4.315000 7
152606.391000 497650.813000 4.436000 7
152605.984000 497650.531000 4.050000 7
152606.234000 497650.219000 4.110000 7
152606.891000 497650.969000 3.061000 7
152607.250000 497650.969000 4.331000 7
152607.547000 497650.531000 3.502000 7
152607.766000 497650.094000 3.849000 7
152606.781000 497650.531000 3.852000 7
152607.109000 497650.438000 3.398000 7
152607.469000 497650.188000 3.669000 7
152607.391000 497649.875000 3.641000 7
152607.031000 497650.125000 3.412000 7
152606.859000 497649.438000 3.664000 7
152606.719000 497650.281000 3.247000 7
152606.797000 497649.188000 3.183000 7
152605.938000 497650.281000 3.607000 7
152605.391000 497649.750000 3.463000 7
152606.656000 497650.000000 3.064000 7
152605.844000 497649.969000 3.652000 7
152606.188000 497650.000000 3.128000 7
152605.781000 497649.688000 3.173000 7
152606.484000 497649.281000 3.511000 7
152606.563000 497648.219000 3.082000 7
152606.719000 497648.844000 3.173000 7
152606.234000 497648.281000 3.505000 7
152605.922000 497648.969000 3.750000 7
152605.719000 497649.406000 2.873000 7
152606.406000 497649.000000 3.307000 7
152606.016000 497649.375000 3.015000 7
152606.328000 497648.688000 2.886000 7
152605.641000 497649.125000 2.648000 7
152605.547000 497648.750000 2.714000 7
152605.828000 497648.594000 1.615000 7
152606.234000 497648.344000 0.795000 7
152607.250000 497648.063000 0.104000 7
152606.938000 497648.125000 0.233000 7
152607.172000 497647.688000 0.177000 7
152606.422000 497647.656000 -0.043000 7
152606.859000 497647.781000 0.090000 7
152606.031000 497647.500000 0.163000 7
152606.078000 497647.688000 0.938000 7
152605.750000 497646.375000 1.103000 7
152605.922000 497645.625000 0.606000 7
152606.203000 497645.156000 0.357000 7
152605.531000 497645.469000 0.286000 7
152605.844000 497645.344000 0.400000 7
152605.594000 497645.719000 0.837000 7
152605.844000 497646.719000 0.672000 7
152606.313000 497647.219000 0.816000 7
152606.516000 497646.375000 1.163000 7
152606.641000 497645.563000 1.607000 7
152607.406000 497645.281000 2.018000 7
152608.109000 497645.031000 2.632000 7
152608.156000 497645.219000 3.517000 7
152608.500000 497645.031000 4.321000 7
152608.672000 497644.188000 4.783000 7
152609.469000 497644.313000 4.771000 7
152610.078000 497645.094000 4.757000 7
152609.453000 497645.750000 4.401000 7
152609.594000 497646.281000 5.198000 7
152609.219000 497646.344000 5.792000 7
152608.969000 497645.406000 5.564000 7
152609.734000 497645.375000 6.077000 7
152609.656000 497645.063000 5.889000 7
152609.344000 497645.313000 5.403000 7
152609.406000 497645.531000 6.062000 7
152608.813000 497646.313000 4.756000 7
152608.359000 497646.031000 4.669000 7
152608.063000 497646.219000 3.882000 7
152607.297000 497646.469000 3.426000 7
152606.734000 497645.938000 3.802000 7
152606.984000 497645.188000 3.467000 7
152607.188000 497644.375000 3.998000 7
152607.047000 497643.844000 3.266000 7
152607.781000 497643.719000 2.604000 7
152607.641000 497643.156000 1.876000 7
152608.375000 497642.969000 1.938000 7
152608.875000 497643.438000 2.524000 7
152609.219000 497643.313000 2.476000 7
152608.953000 497643.719000 2.711000 7
152609.344000 497643.813000 3.579000 7
152609.578000 497644.750000 3.766000 7
152610.453000 497645.063000 3.754000 7
152610.578000 497644.094000 3.743000 7
152610.328000 497644.500000 2.918000 7
152610.078000 497645.125000 2.406000 7
152610.172000 497645.469000 2.176000 7
152609.688000 497645.219000 2.459000 7
152611.031000 497644.438000 2.653000 7
152610.422000 497644.938000 2.375000 7
152610.781000 497644.906000 2.596000 7
152610.703000 497644.594000 2.484000 7
152610.422000 497643.406000 4.055000 7
152610.922000 497644.031000 3.322000 7
152610.500000 497643.719000 4.118000 7
152610.281000 497645.938000 3.618000 7
152609.656000 497646.563000 3.161000 7
152609.016000 497647.125000 3.409000 7
152609.859000 497647.406000 3.846000 7
152609.594000 497647.906000 3.812000 7
152610.203000 497647.281000 3.738000 7
152608.484000 497646.594000 2.856000 7
152608.016000 497646.031000 2.806000 7
152608.344000 497646.000000 2.709000 7
152608.422000 497646.281000 2.718000 7
152608.250000 497647.000000 3.122000 7
152609.172000 497647.750000 3.785000 7
152608.563000 497646.906000 3.140000 7
152609.094000 497647.406000 3.686000 7
152608.641000 497647.188000 3.365000 7
152609.438000 497647.281000 3.566000 7
152608.875000 497646.563000 2.904000 7
152608.969000 497646.906000 2.965000 7
152610.141000 497647.031000 3.322000 7
152609.797000 497647.156000 3.373000 7
152609.375000 497647.000000 3.307000 7
152609.734000 497646.906000 3.073000 7
152610.063000 497646.750000 3.170000 7
152609.969000 497646.344000 3.438000 7
152609.984000 497644.688000 3.141000 7
152609.250000 497644.938000 3.283000 7
152610.219000 497644.063000 3.681000 7
152610.047000 497643.406000 3.903000 7
152610.141000 497643.813000 3.501000 7
152609.891000 497644.313000 3.364000 7
152609.500000 497644.469000 3.462000 7
152609.813000 497644.000000 3.592000 7
152609.422000 497644.156000 3.314000 7
152608.781000 497643.094000 2.616000 7
152608.016000 497643.094000 1.969000 7
152607.156000 497644.281000 2.291000 7
152608.422000 497643.188000 2.616000 7
152608.578000 497643.844000 2.614000 7
152608.297000 497644.219000 3.378000 7
152608.500000 497643.500000 2.688000 7
152607.719000 497643.469000 1.920000 7
152607.406000 497643.563000 2.137000 7
152608.234000 497643.969000 2.799000 7
152608.172000 497643.688000 2.626000 7
152607.859000 497644.031000 2.780000 7
152607.000000 497643.656000 2.333000 7
152607.469000 497643.844000 2.453000 7
152607.547000 497644.125000 2.590000 7
152607.328000 497644.938000 4.433000 7
152606.781000 497644.375000 4.938000 7
152606.547000 497643.438000 4.735000 7
152605.906000 497643.938000 4.516000 7
152606.125000 497643.469000 5.337000 7
152606.906000 497644.906000 5.700000 7
152606.172000 497644.969000 6.367000 7
152605.578000 497645.656000 6.451000 7
152605.719000 497646.219000 6.942000 7
152605.859000 497646.750000 7.734000 7
152606.188000 497646.656000 7.142000 7
152606.109000 497646.375000 7.032000 7
152606.031000 497646.063000 6.700000 7
152605.641000 497645.875000 6.920000 7
152605.969000 497645.813000 6.223000 7
152606.453000 497646.094000 5.444000 7
152606.313000 497645.563000 4.633000 7
152605.797000 497645.156000 4.087000 7
152606.109000 497644.750000 3.241000 7
152605.641000 497645.906000 4.440000 7
152605.813000 497646.625000 4.045000 7
152606.281000 497647.031000 4.448000 7
152605.969000 497647.219000 4.286000 7
152606.203000 497646.750000 4.205000 7
152605.906000 497646.938000 4.101000 7
152605.953000 497645.719000 4.690000 7
152606.906000 497646.625000 5.967000 7
152607.203000 497646.094000 6.381000 7
152607.922000 497645.625000 5.894000 7
152607.516000 497645.750000 5.578000 7
152607.359000 497646.688000 6.461000 7
152607.063000 497647.250000 6.063000 7
152607.281000 497646.406000 6.426000 7
152606.656000 497646.969000 6.125000 7
152606.969000 497646.875000 6.092000 7
152607.234000 497646.219000 5.440000 7
152606.828000 497646.313000 5.786000 7
152606.375000 497645.844000 5.073000 7
152606.766000 497646.031000 5.495000 7
152606.516000 497646.375000 5.827000 7
152605.406000 497644.938000 6.780000 7
152605.484000 497645.281000 6.713000 7
152606.328000 497644.250000 6.731000 7
152606.719000 497644.125000 6.749000 7
152606.234000 497643.906000 6.764000 7
152605.641000 497644.469000 6.658000 7
152605.594000 497644.281000 5.879000 7
152605.719000 497644.781000 6.690000 7
152606.563000 497645.219000 6.689000 7
152606.250000 497645.281000 6.761000 7
152605.813000 497645.156000 6.658000 7
152606.094000 497644.688000 6.245000 7
152607.141000 497645.844000 5.782000 7
152606.672000 497645.688000 5.648000 7
152607.438000 497645.406000 5.853000 7
152606.813000 497644.531000 6.252000 7
152607.063000 497645.531000 5.866000 7
152606.422000 497644.656000 5.970000 7
152606.500000 497644.969000 6.035000 7
152607.000000 497645.250000 5.502000 7
152606.234000 497643.906000 4.518000 7
152607.000000 497643.625000 4.792000 7
152606.281000 497644.094000 5.336000 7
152606.625000 497643.750000 4.849000 7
152607.063000 497643.938000 4.968000 7
152606.703000 497644.031000 4.939000 7
152607.641000 497644.531000 4.526000 7
152607.500000 497643.938000 3.915000 7
152607.578000 497644.250000 4.038000 7
152607.250000 497644.656000 4.278000 7
152607.109000 497644.094000 3.786000 7
152606.750000 497644.281000 3.252000 7
152606.203000 497645.094000 3.090000 7
152606.438000 497644.719000 3.293000 7
152606.828000 497644.594000 3.386000 7
152606.516000 497645.031000 3.315000 7
152606.906000 497644.875000 3.754000 7
152606.125000 497646.438000 3.947000 7
152606.578000 497646.625000 4.139000 7
152606.563000 497645.250000 3.883000 7
152607.063000 497645.500000 3.582000 7
152607.156000 497645.906000 3.255000 7
152607.594000 497646.063000 3.286000 7
152607.672000 497646.375000 3.254000 7
152607.750000 497646.688000 3.397000 7
152608.172000 497646.625000 3.371000 7
152609.078000 497645.813000 4.908000 7
152609.875000 497645.969000 4.047000 7
152609.391000 497645.500000 4.006000 7
152609.531000 497646.094000 4.281000 7
152610.609000 497645.656000 4.210000 7
152610.531000 497645.344000 4.055000 7
152610.188000 497645.500000 4.163000 7
152609.688000 497645.219000 4.769000 7
152609.266000 497644.969000 5.384000 7
152609.609000 497644.906000 4.667000 7
152609.375000 497643.938000 4.735000 7
152609.047000 497644.125000 4.532000 7
152608.594000 497643.875000 4.699000 7
152609.203000 497644.750000 4.778000 7
152609.141000 497644.469000 4.537000 7
152609.016000 497645.594000 4.138000 7
152607.969000 497644.469000 4.421000 7
152608.281000 497645.750000 4.445000 7
152608.922000 497645.156000 4.906000 7
152608.672000 497645.719000 4.306000 7
152608.344000 497644.406000 4.361000 7
152608.781000 497644.594000 4.506000 7
152608.844000 497644.875000 4.574000 7
152608.422000 497644.719000 4.538000 7
152607.516000 497645.688000 3.755000 7
152608.891000 497645.063000 3.339000 7
152608.594000 497645.406000 4.095000 7
152607.891000 497645.531000 4.135000 7
152608.250000 497645.594000 3.241000 7
152608.844000 497644.875000 2.508000 7
152607.938000 497644.375000 2.580000 7
152607.766000 497645.031000 2.971000 7
152608.484000 497644.969000 2.575000 7
152608.031000 497644.719000 2.600000 7
152607.938000 497645.719000 2.686000 7
152607.859000 497645.406000 2.646000 7
152607.719000 497644.781000 2.509000 7
152607.313000 497644.906000 2.530000 7
152607.469000 497645.531000 2.347000 7
152606.266000 497645.406000 0.938000 7
152606.969000 497645.156000 1.589000 7
152606.891000 497644.875000 1.276000 7
152606.344000 497645.719000 0.812000 7
152606.578000 497645.313000 1.249000 7
152607.594000 497646.063000 0.996000 7
152608.250000 497645.625000 0.400000 7
152607.141000 497644.250000 0.157000 7
152606.313000 497644.219000 -0.367000 7
152605.844000 497643.656000 -0.754000 7
152605.672000 497643.031000 -0.682000 7
152606.063000 497643.250000 -0.354000 7
152606.922000 497643.375000 -0.331000 7
152607.625000 497643.063000 0.213000 7
152608.484000 497643.469000 0.467000 7
152608.422000 497643.219000 0.162000 7
152608.156000 497643.656000 0.354000 7
152608.344000 497642.875000 0.233000 7
152607.906000 497642.625000 0.503000 7
152608.078000 497643.344000 0.038000 7
152607.219000 497642.813000 0.478000 7
152607.984000 497643.000000 0.376000 7
152607.563000 497642.844000 -0.576000 7
152607.703000 497643.406000 -0.058000 7
152606.828000 497642.969000 0.338000 7
152607.328000 497643.250000 -0.207000 7
152606.453000 497643.094000 0.148000 7
152605.750000 497643.313000 -0.446000 7
152605.469000 497643.844000 -0.838000 7
152606.547000 497643.469000 -0.466000 7
152606.203000 497643.781000 0.208000 7
152606.141000 497643.594000 -0.664000 7
152605.922000 497644.000000 -0.657000 7
152606.391000 497644.594000 -0.620000 7
152606.000000 497644.313000 -0.427000 7
152606.625000 497643.781000 -0.369000 7
152607.766000 497643.719000 0.179000 7
152607.391000 497643.531000 -0.140000 7
152607.000000 497643.656000 -0.235000 7
152606.688000 497644.063000 -0.066000 7
152607.063000 497643.938000 0.247000 7
152607.859000 497645.375000 0.403000 7
152607.219000 497644.563000 0.117000 7
152607.625000 497644.469000 -0.059000 7
152607.875000 497644.125000 -0.394000 7
152608.328000 497644.313000 0.234000 7
152608.266000 497644.125000 -0.776000 7
152608.016000 497644.688000 0.146000 7
152607.953000 497644.406000 -0.145000 7
152608.500000 497645.031000 -0.297000 7
152608.641000 497645.625000 -0.146000 7
152608.203000 497645.438000 -0.472000 7
152610.109000 497645.250000 -0.913000 7
152610.344000 497644.594000 -0.198000 7
152610.641000 497644.313000 -0.332000 7
152610.000000 497644.813000 -0.233000 7
152608.844000 497644.906000 -0.482000 7
152608.938000 497645.281000 -0.654000 7
152610.266000 497644.313000 -0.371000 7
152608.703000 497644.313000 -1.012000 7
152608.609000 497643.969000 -0.824000 7
152609.938000 497644.531000 -0.366000 7
152609.563000 497644.688000 -0.840000 7
152609.141000 497644.500000 -0.889000 7
152608.984000 497643.875000 -0.765000 7
152609.063000 497644.219000 -0.859000 7
152609.469000 497644.375000 -0.682000 7
152608.875000 497643.469000 -0.281000 7
152609.859000 497644.219000 -0.277000 7
152609.219000 497643.313000 0.007000 7
152608.766000 497643.031000 0.662000 7
152609.047000 497642.656000 0.075000 7
152608.250000 497642.500000 0.603000 7
152609.109000 497642.906000 0.728000 7
152608.516000 497641.969000 1.113000 7
152608.594000 497642.281000 1.206000 7
152608.672000 497642.656000 0.890000 7
152609.594000 497641.563000 1.070000 7
152609.344000 497642.125000 0.814000 7
152611.078000 497642.938000 1.016000 7
152609.516000 497642.844000 0.423000 7
152609.594000 497643.156000 0.419000 7
152610.578000 497642.656000 1.453000 7
152610.672000 497643.031000 1.356000 7
152610.063000 497643.438000 1.145000 7
152609.984000 497643.156000 1.040000 7
152610.344000 497643.156000 1.104000 7
152609.906000 497642.875000 0.782000 7
152609.688000 497642.000000 0.318000 7
152609.844000 497642.594000 0.329000 7
152610.203000 497642.563000 0.329000 7
152610.141000 497642.281000 0.129000 7
152610.531000 497642.469000 0.405000 7
152610.875000 497642.156000 -0.174000 7
152611.000000 497642.625000 0.773000 7
152610.703000 497641.438000 0.089000 7
152610.625000 497641.125000 0.009000 7
152611.703000 497642.156000 0.996000 7
152611.375000 497642.500000 0.447000 7
152610.797000 497641.781000 0.049000 7
152610.938000 497642.344000 0.552000 7
152611.281000 497642.125000 0.957000 7
152611.625000 497641.813000 0.850000 7
152611.141000 497641.563000 0.117000 7
152611.063000 497641.219000 0.113000 7
152611.656000 497640.531000 0.025000 7
152611.734000 497640.875000 -0.047000 7
152611.484000 497641.281000 0.238000 7
152612.156000 497640.750000 -0.408000 7
152611.891000 497641.469000 0.408000 7
152611.969000 497641.813000 0.203000 7
152612.203000 497640.969000 0.260000 7
152612.453000 497641.938000 -0.016000 7
152612.359000 497641.594000 0.169000 7
152612.641000 497641.063000 -0.010000 7
152620.656000 497681.563000 1.087000 8
152620.422000 497680.656000 0.785000 8
152619.531000 497680.250000 0.768000 8
152619.297000 497680.781000 1.556000 8
152619.531000 497681.719000 1.772000 8
152619.672000 497682.250000 2.335000 8
152619.016000 497682.875000 2.752000 8
152618.859000 497683.750000 2.333000 8
152619.719000 497684.031000 2.721000 8
152620.359000 497683.531000 2.516000 8
152620.094000 497683.969000 1.725000 8
152619.516000 497683.219000 1.645000 8
152620.406000 497683.781000 1.126000 8
152620.219000 497684.469000 0.708000 8
152620.844000 497684.125000 0.204000 8
152620.922000 497684.406000 0.388000 8
152620.156000 497684.219000 0.261000 8
152619.266000 497683.906000 0.478000 8
152618.547000 497684.063000 0.683000 8
152618.047000 497683.594000 0.615000 8
152617.625000 497683.469000 1.510000 8
152616.766000 497683.125000 1.291000 8
152616.063000 497683.594000 1.468000 8
152616.625000 497684.125000 1.663000 8
152615.922000 497683.031000 1.161000 8
152616.266000 497682.688000 0.363000 8
152616.188000 497682.375000 0.212000 8
152616.906000 497681.969000 -0.279000 8
152617.438000 497681.156000 -0.328000 8
152617.813000 497681.094000 -1.095000 8
152618.672000 497681.531000 -1.194000 8
152618.484000 497682.219000 -0.500000 8
152617.781000 497682.531000 -0.990000 8
152618.313000 497683.125000 -1.457000 8
152618.016000 497683.469000 -0.702000 8
152618.891000 497683.875000 -0.652000 8
152618.094000 497683.781000 -0.650000 8
152618.750000 497683.313000 -1.068000 8
152618.156000 497682.500000 -1.550000 8
152617.344000 497682.344000 -1.227000 8
152619.188000 497681.906000 -0.170000 8
152619.375000 497681.063000 -0.110000 8
152619.219000 497680.469000 -0.541000 8
152618.719000 497680.031000 -0.602000 8
152618.313000 497680.094000 -0.231000 8
152618.438000 497680.563000 0.567000 8
152618.031000 497680.406000 0.471000 8
152618.813000 497680.406000 -1.042000 8
152619.328000 497682.469000 0.398000 8
152619.719000 497682.500000 0.947000 8
152619.547000 497681.813000 -0.796000 8
152619.594000 497682.000000 0.139000 8
152618.203000 497682.719000 -0.998000 8
152618.875000 497682.344000 0.027000 8
152618.547000 497682.469000 -0.323000 8
152618.375000 497681.813000 -2.035000 8
152617.859000 497681.344000 -2.609000 8
152617.672000 497682.125000 -2.416000 8
152617.922000 497681.563000 -2.104000 8
152618.063000 497682.156000 -1.417000 8
152618.891000 497680.719000 -0.915000 8
152619.125000 497681.625000 -0.580000 8
152619.047000 497681.344000 -0.573000 8
152618.984000 497681.094000 -1.028000 8
152618.609000 497681.281000 -1.560000 8
152617.984000 497681.813000 -1.604000 8
152618.000000 497680.313000 -0.822000 8
152618.281000 497681.438000 -1.700000 8
152618.094000 497680.656000 -1.073000 8
152617.344000 497680.719000 0.270000 8
152617.281000 497680.469000 -0.225000 8
152617.000000 497680.969000 -0.721000 8
152616.297000 497681.219000 -1.184000 8
152616.375000 497681.500000 -1.034000 8
152616.703000 497681.094000 -1.089000 8
152616.766000 497681.375000 -0.924000 8
152617.516000 497681.406000 -0.106000 8
152617.391000 497682.563000 -0.601000 8
152617.109000 497681.438000 0.323000 8
152617.688000 497682.125000 -0.328000 8
152616.797000 497681.500000 0.280000 8
152617.594000 497681.750000 -0.288000 8
152615.844000 497682.750000 0.978000 8
152615.984000 497683.313000 1.292000 8
152616.547000 497683.844000 1.499000 8
152617.188000 497683.063000 0.700000 8
152616.328000 497682.906000 1.026000 8
152616.469000 497683.500000 1.467000 8
152616.688000 497682.750000 1.545000 8
152616.391000 497683.219000 1.268000 8
152617.000000 497684.031000 1.585000 8
152616.844000 497683.406000 1.280000 8
152616.922000 497683.688000 1.679000 8
152617.313000 497683.563000 1.693000 8
152617.578000 497683.313000 2.569000 8
152617.828000 497682.656000 2.189000 8
152618.469000 497682.156000 1.613000 8
152618.406000 497681.906000 1.294000 8
152618.188000 497682.625000 1.667000 8
152617.906000 497682.969000 2.341000 8
152617.375000 497683.844000 -0.063000 8
152617.797000 497684.188000 1.360000 8
152618.125000 497683.906000 0.863000 8
152618.203000 497684.219000 0.965000 8
152619.672000 497683.875000 -0.260000 8
152619.922000 497683.313000 -0.127000 8
152620.000000 497683.594000 -0.071000 8
152620.688000 497683.438000 0.434000 8
152620.578000 497684.469000 0.736000 8
152620.344000 497683.531000 0.463000 8
152620.750000 497683.688000 0.747000 8
152619.703000 497683.969000 1.233000 8
152620.031000 497683.750000 1.228000 8
152620.484000 497684.031000 1.576000 8
152620.172000 497684.281000 1.853000 8
152619.984000 497683.500000 2.645000 8
152619.797000 497684.313000 2.701000 8
152619.641000 497683.719000 2.739000 8
152619.266000 497683.906000 2.464000 8
152618.781000 497683.406000 2.171000 8
152619.188000 497683.563000 2.561000 8
152618.672000 497682.938000 2.986000 8
152619.094000 497683.219000 2.635000 8
152620.141000 497682.688000 1.664000 8
152619.469000 497683.031000 2.774000 8
152620.203000 497682.938000 2.183000 8
152618.938000 497682.594000 2.493000 8
152619.234000 497682.063000 2.728000 8
152619.141000 497681.688000 1.137000 8
152619.594000 497681.938000 2.300000 8
152619.188000 497681.906000 1.967000 8
152618.641000 497681.406000 1.673000 8
152619.063000 497681.375000 0.903000 8
152619.797000 497681.313000 2.029000 8
152619.734000 497681.063000 1.721000 8
152619.391000 497681.156000 1.277000 8
152619.672000 497680.750000 1.694000 8
152618.969000 497680.969000 1.632000 8
152618.828000 497680.438000 0.826000 8
152619.172000 497680.250000 0.755000 8
152619.453000 497679.938000 0.780000 8
152620.266000 497680.063000 0.391000 8
152619.938000 497680.469000 0.451000 8
152620.344000 497680.344000 0.556000 8
152620.063000 497680.969000 1.500000 8
152620.016000 497682.156000 1.041000 8
152619.922000 497681.813000 1.082000 8
152620.516000 497681.031000 0.633000 8
152620.484000 497680.938000 1.203000 8
152620.172000 497681.375000 0.780000 8
152620.250000 497681.688000 1.028000 8
152609.516000 497641.219000 3.577000 9
152608.953000 497640.563000 3.143000 9
152608.219000 497640.781000 2.913000 9
152607.688000 497640.188000 3.274000 9
152606.875000 497640.063000 3.654000 9
152606.141000 497640.188000 3.941000 9
152605.984000 497639.563000 3.837000 9
152606.219000 497640.469000 4.332000 9
152606.797000 497641.094000 3.947000 9
152607.328000 497641.906000 4.079000 9
152607.969000 497641.344000 4.490000 9
152608.094000 497641.875000 5.292000 9
152607.453000 497642.406000 5.285000 9
152607.172000 497642.563000 4.895000 9
152607.547000 497642.750000 4.943000 9
152607.906000 497642.625000 5.495000 9
152607.828000 497642.313000 5.493000 9
152608.484000 497641.875000 4.267000 9
152608.844000 497641.781000 4.229000 9
152608.578000 497642.219000 4.155000 9
152608.422000 497641.594000 3.965000 9
152608.250000 497640.875000 4.547000 9
152608.094000 497640.250000 4.434000 9
152607.563000 497639.688000 4.409000 9
152607.422000 497639.125000 3.897000 9
152608.031000 497641.594000 4.777000 9
152607.875000 497641.000000 4.466000 9
152607.391000 497642.094000 4.970000 9
152606.641000 497642.188000 3.578000 9
152606.281000 497642.375000 2.738000 9
152606.516000 497641.688000 2.551000 9
152606.453000 497641.469000 1.676000 9
152605.766000 497642.031000 1.486000 9
152605.609000 497642.750000 1.393000 9
152605.750000 497643.313000 1.907000 9
152605.688000 497643.031000 1.717000 9
152605.531000 497642.406000 1.389000 9
152605.844000 497642.344000 1.495000 9
152607.094000 497640.969000 1.599000 9
152606.859000 497640.000000 1.617000 9
152606.500000 497639.875000 0.783000 9
152605.781000 497640.406000 0.458000 9
152605.641000 497639.781000 0.421000 9
152605.484000 497639.188000 -0.235000 9
152605.766000 497638.719000 0.557000 9
152606.000000 497637.906000 0.955000 9
152606.781000 497638.094000 0.889000 9
152607.563000 497638.094000 0.916000 9
152606.938000 497638.719000 1.135000 9
152607.406000 497639.063000 1.928000 9
152608.266000 497639.469000 2.025000 9
152609.094000 497639.563000 1.497000 9
152608.844000 497640.094000 1.478000 9
152609.016000 497639.250000 1.260000 9
152609.172000 497639.875000 1.540000 9
152608.094000 497640.281000 1.565000 9
152608.438000 497640.156000 1.519000 9
152608.750000 497639.781000 1.538000 9
152608.359000 497639.875000 1.398000 9
152608.672000 497639.406000 1.767000 9
152608.344000 497639.781000 2.249000 9
152608.094000 497638.813000 2.277000 9
152608.188000 497639.188000 1.828000 9
152607.922000 497639.594000 2.071000 9
152607.125000 497639.500000 2.473000 9
152607.844000 497639.281000 1.771000 9
152607.688000 497638.656000 1.799000 9
152607.766000 497638.938000 2.033000 9
152607.313000 497638.750000 2.111000 9
152607.250000 497638.438000 2.014000 9
152607.188000 497638.219000 1.260000 9
152607.109000 497637.906000 1.138000 9
152606.859000 497638.406000 1.068000 9
152606.719000 497637.813000 0.618000 9
152605.938000 497637.625000 0.792000 9
152606.406000 497638.188000 0.769000 9
152606.563000 497638.844000 0.732000 9
152606.484000 497638.500000 0.896000 9
152605.594000 497638.000000 0.856000 9
152606.109000 497638.313000 0.028000 9
152606.250000 497638.906000 0.692000 9
152605.813000 497638.906000 1.572000 9
152606.172000 497638.563000 0.657000 9
152605.688000 497638.344000 0.638000 9
152605.844000 497639.000000 0.686000 9
152605.703000 497640.094000 0.451000 9
152605.922000 497639.344000 0.439000 9
152606.641000 497639.125000 0.872000 9
152606.328000 497639.219000 0.595000 9
152606.016000 497639.688000 0.439000 9
152606.078000 497639.938000 0.827000 9
152606.578000 497640.219000 0.623000 9
152606.813000 497639.844000 0.621000 9
152606.719000 497639.438000 0.923000 9
152607.484000 497639.406000 1.824000 9
152606.125000 497640.094000 2.075000 9
152605.406000 497640.594000 2.390000 9
152605.563000 497641.188000 2.837000 9
152606.266000 497640.656000 2.915000 9
152605.484000 497640.906000 2.724000 9
152605.891000 497640.813000 2.405000 9
152605.813000 497640.469000 2.637000 9
152606.016000 497639.719000 2.598000 9
152605.719000 497640.125000 2.575000 9
152605.656000 497639.844000 2.361000 9
152606.188000 497640.375000 2.423000 9
152607.641000 497640.031000 1.727000 9
152606.391000 497639.469000 1.279000 9
152607.078000 497639.281000 1.496000 9
152607.578000 497639.781000 1.554000 9
152606.531000 497640.031000 2.023000 9
152607.734000 497640.406000 1.645000 9
152607.813000 497640.750000 1.405000 9
152607.328000 497640.281000 1.345000 9
152606.953000 497640.375000 1.149000 9
152607.391000 497640.563000 1.660000 9
152607.031000 497640.688000 1.361000 9
152606.781000 497641.063000 1.593000 9
152607.141000 497641.125000 2.880000 9
152606.156000 497641.875000 1.761000 9
152605.641000 497641.563000 2.614000 9
152605.953000 497641.063000 2.791000 9
152606.828000 497641.250000 2.669000 9
152606.047000 497641.438000 2.409000 9
