153704.281000 496107.875000 -0.759000 0
153705.000000 496108.188000 -1.033000 0
153705.500000 496107.750000 -0.454000 0
153705.688000 496108.656000 -0.436000 0
153705.859000 496109.344000 -1.137000 0
153706.359000 496109.156000 -1.926000 0
153707.172000 496108.938000 -2.463000 0
153708.000000 496108.813000 -2.379000 0
153708.438000 496108.531000 -1.545000 0
153709.109000 496108.813000 -1.082000 0
153710.000000 496108.469000 -0.995000 0
153710.594000 496109.063000 -1.114000 0
153710.109000 496109.531000 -1.312000 0
153709.906000 496110.313000 -0.926000 0
153709.031000 496110.750000 -0.901000 0
153708.344000 496110.438000 -1.492000 0
153708.188000 496109.500000 -1.663000 0
153707.625000 496110.281000 -1.982000 0
153707.469000 496110.844000 -2.535000 0
153707.156000 496110.344000 -2.621000 0
153706.922000 496109.938000 -2.613000 0
153707.234000 496110.063000 -2.357000 0
153707.563000 496110.500000 -2.462000 0
153707.656000 496110.156000 -1.291000 0
153707.391000 496109.469000 -0.784000 0
153706.922000 496109.906000 -0.169000 0
153706.719000 496110.719000 0.348000 0
153705.969000 496110.688000 -0.136000 0
153705.156000 496110.688000 -0.622000 0
153704.922000 496109.969000 -1.228000 0
153704.078000 496110.031000 -1.624000 0
153704.313000 496110.875000 -1.176000 0
153703.438000 496111.125000 -1.505000 0
153703.813000 496111.063000 -1.708000 0
153703.922000 496110.625000 -0.725000 0
153704.234000 496111.188000 -1.234000 0
153703.531000 496110.813000 -1.386000 0
153703.844000 496109.563000 -0.793000 0
153703.094000 496109.531000 -1.162000 0
153703.266000 496108.844000 -1.180000 0
153704.328000 496109.031000 -0.366000 0
153705.016000 496109.594000 0.037000 0
153705.406000 496109.750000 -0.203000 0
153705.469000 496109.500000 0.113000 0
153704.922000 496109.969000 0.108000 0
153705.094000 496109.313000 0.140000 0
153703.734000 496108.563000 -0.169000 0
153703.516000 496107.875000 0.249000 0
153703.438000 496108.188000 0.044000 0
153703.359000 496108.469000 0.011000 0
153703.813000 496108.250000 0.056000 0
153703.188000 496109.188000 -1.136000 0
153703.688000 496108.750000 -0.836000 0
153704.156000 496109.750000 -0.097000 0
153704.031000 496108.875000 -0.870000 0
153703.594000 496109.125000 -0.643000 0
153703.531000 496109.344000 -1.123000 0
153703.438000 496109.719000 -1.121000 0
153703.766000 496109.906000 -0.898000 0
153703.922000 496110.625000 -2.047000 0
153704.109000 496109.906000 -0.865000 0
153704.391000 496110.594000 -0.942000 0
153704.469000 496110.313000 -0.791000 0
153704.641000 496111.094000 -0.877000 0
153705.406000 496111.063000 -1.075000 0
153704.781000 496110.500000 -0.448000 0
153704.719000 496110.781000 -0.656000 0
153705.250000 496110.313000 -0.736000 0
153705.078000 496111.000000 -0.743000 0
153706.609000 496111.125000 -0.642000 0
153707.422000 496111.094000 -0.313000 0
153706.328000 496110.656000 -0.846000 0
153705.688000 496109.969000 -0.100000 0
153705.469000 496110.813000 -0.672000 0
153706.234000 496111.031000 -0.643000 0
153705.875000 496111.063000 -0.119000 0
153707.516000 496110.656000 0.600000 0
153707.938000 496110.438000 0.554000 0
153707.594000 496110.375000 0.806000 0
153707.453000 496110.969000 0.570000 0
153706.016000 496110.469000 0.218000 0
153706.672000 496110.875000 -0.249000 0
153706.953000 496111.156000 0.390000 0
153707.047000 496110.781000 0.372000 0
153706.422000 496110.281000 -0.891000 0
153707.125000 496110.500000 0.530000 0
153706.297000 496109.438000 0.297000 0
153706.859000 496108.625000 0.448000 0
153706.688000 496107.906000 1.048000 0
153706.375000 496107.313000 0.316000 0
153707.281000 496106.969000 0.521000 0
153707.063000 496106.469000 0.641000 0
153706.359000 496106.063000 0.199000 0
153705.469000 496106.438000 0.100000 0
153705.406000 496106.656000 -0.452000 0
153706.172000 496105.125000 0.051000 0
153706.938000 496105.188000 -0.057000 0
153707.625000 496105.656000 -0.548000 0
153708.469000 496105.344000 -0.839000 0
153708.219000 496106.250000 -1.141000 0
153707.750000 496106.719000 -1.842000 0
153706.953000 496106.875000 -1.653000 0
153706.375000 496107.344000 -2.114000 0
153705.766000 496106.750000 -1.594000 0
153705.406000 496106.688000 -1.628000 0
153704.766000 496106.031000 -1.266000 0
153704.844000 496105.719000 -1.330000 0
153705.125000 496106.000000 -1.411000 0
153705.516000 496107.688000 -2.087000 0
153705.219000 496107.375000 -2.846000 0
153705.844000 496108.031000 -2.781000 0
153706.016000 496108.750000 -3.352000 0
153706.063000 496108.531000 -2.945000 0
153705.781000 496108.313000 -3.038000 0
153705.469000 496107.906000 -2.482000 0
153705.672000 496107.094000 -1.603000 0
153705.594000 496107.375000 -1.916000 0
153705.906000 496107.781000 -2.469000 0
153706.031000 496107.313000 -1.674000 0
153705.969000 496107.563000 -2.129000 0
153706.281000 496107.688000 -2.240000 0
153706.188000 496106.719000 -1.396000 0
153708.438000 496107.125000 -1.001000 0
153707.984000 496107.188000 -0.190000 0
153708.250000 496107.875000 0.470000 0
153708.047000 496108.625000 0.859000 0
153708.203000 496109.406000 0.433000 0
153709.031000 496109.125000 0.083000 0
153709.219000 496108.406000 -0.083000 0
153709.406000 496109.313000 -0.038000 0
153709.125000 496108.781000 0.047000 0
153708.953000 496109.438000 -0.096000 0
153708.688000 496109.094000 0.023000 0
153708.156000 496109.594000 -0.037000 0
153708.578000 496109.531000 0.269000 0
153708.281000 496109.156000 0.728000 0
153707.969000 496108.938000 0.822000 0
153709.031000 496107.750000 0.176000 0
153708.938000 496108.156000 0.256000 0
153707.719000 496108.188000 0.903000 0
153707.797000 496107.875000 1.030000 0
153708.578000 496108.031000 0.387000 0
153708.750000 496107.313000 0.408000 0
153708.203000 496108.031000 -0.222000 0
153708.344000 496107.531000 0.520000 0
153709.266000 496106.906000 -0.652000 0
153709.922000 496107.344000 -1.053000 0
153709.453000 496107.469000 -1.148000 0
153709.375000 496106.438000 -1.058000 0
153708.984000 496106.406000 -1.768000 0
153709.531000 496107.188000 -0.779000 0
153709.188000 496107.188000 -0.697000 0
153707.859000 496107.688000 -1.065000 0
153707.313000 496108.375000 -0.713000 0
153707.922000 496107.375000 -0.779000 0
153709.031000 496106.219000 -1.072000 0
153708.578000 496106.563000 -0.529000 0
153708.578000 496106.625000 -1.635000 0
153707.797000 496106.563000 -1.326000 0
153708.156000 496106.500000 -1.509000 0
153709.094000 496106.000000 -0.732000 0
153709.172000 496105.688000 -0.575000 0
153708.703000 496106.125000 -0.856000 0
153708.813000 496105.719000 -1.100000 0
153708.875000 496105.469000 -0.676000 0
153708.547000 496105.000000 -0.652000 0
153707.859000 496106.313000 -0.799000 0
153707.906000 496106.125000 -0.215000 0
153708.109000 496105.313000 -0.598000 0
153708.047000 496105.594000 -0.924000 0
153707.563000 496105.906000 -0.802000 0
153707.656000 496105.531000 0.308000 0
153707.375000 496105.250000 -0.027000 0
153705.734000 496105.375000 0.125000 0
153706.563000 496105.281000 -0.073000 0
153705.656000 496105.688000 -0.072000 0
153705.547000 496106.094000 0.125000 0
153706.094000 496105.438000 -0.085000 0
153706.828000 496105.563000 0.095000 0
153705.891000 496106.250000 0.270000 0
153707.250000 496105.719000 0.270000 0
153707.563000 496105.906000 0.430000 0
153706.734000 496105.938000 0.218000 0
153706.656000 496106.250000 0.192000 0
153707.750000 496106.719000 0.676000 0
153707.359000 496106.688000 0.820000 0
153707.656000 496107.094000 0.633000 0
153705.750000 496106.781000 -0.208000 0
153706.188000 496106.719000 -0.039000 0
153706.906000 496107.094000 0.311000 0
153706.453000 496107.031000 0.520000 0
153705.875000 496107.938000 0.730000 0
153707.484000 496107.781000 0.830000 0
153707.172000 496107.438000 1.078000 0
153707.078000 496107.781000 1.059000 0
153706.781000 496107.563000 0.875000 0
153706.172000 496108.094000 0.719000 0
153706.828000 496108.750000 -0.333000 0
153706.984000 496108.125000 1.039000 0
153706.906000 496108.469000 1.026000 0
153707.203000 496108.813000 0.877000 0
153706.453000 496108.781000 0.518000 0
153706.219000 496109.719000 0.119000 0
153706.531000 496109.875000 0.162000 0
153707.125000 496109.156000 -0.553000 0
153707.313000 496109.719000 -1.086000 0
153708.156000 496111.156000 -1.430000 0
153707.828000 496110.906000 -1.745000 0
153708.094000 496109.844000 -1.708000 0
153707.938000 496110.500000 -1.875000 0
153708.000000 496110.219000 -1.559000 0
153708.828000 496109.875000 -0.998000 0
153709.078000 496110.563000 -0.293000 0
153708.734000 496110.250000 -0.773000 0
153708.547000 496111.000000 -0.729000 0
153709.281000 496111.219000 -0.961000 0
153708.922000 496111.156000 -0.769000 0
153709.422000 496110.688000 -0.343000 0
153709.188000 496110.188000 -0.586000 0
153709.750000 496110.938000 -1.248000 0
153709.531000 496110.281000 -0.692000 0
153709.828000 496110.594000 -1.123000 0
153710.219000 496110.469000 -0.946000 0
153710.313000 496110.125000 -0.941000 0
153709.984000 496110.000000 -0.964000 0
153710.172000 496109.281000 -0.920000 0
153709.828000 496107.688000 -1.100000 0
153710.672000 496108.688000 -1.232000 0
153710.172000 496107.813000 -0.940000 0
153710.266000 496108.906000 -1.127000 0
153709.734000 496108.031000 -0.991000 0
153710.359000 496108.563000 -1.015000 0
153710.078000 496108.188000 -0.858000 0
153709.922000 496108.750000 -1.229000 0
153709.828000 496109.125000 -1.136000 0
153709.656000 496108.344000 -1.085000 0
153709.391000 496109.375000 -1.029000 0
153709.516000 496108.938000 -1.490000 0
153709.578000 496108.656000 -1.254000 0
153708.609000 496109.375000 -1.561000 0
153709.203000 496108.438000 -1.172000 0
153708.688000 496109.094000 -1.353000 0
153708.844000 496108.469000 -1.114000 0
153708.531000 496108.156000 -1.569000 0
153708.813000 496108.594000 -1.945000 0
153708.313000 496109.031000 -2.183000 0
153707.906000 496109.156000 -2.295000 0
153707.406000 496109.375000 -2.413000 0
153706.922000 496108.406000 -1.624000 0
153706.641000 496109.469000 -2.742000 0
153706.531000 496108.500000 -1.908000 0
153705.938000 496109.031000 -2.254000 0
153706.469000 496108.750000 -2.247000 0
153705.422000 496109.656000 -1.907000 0
153705.828000 496109.469000 -2.022000 0
153706.641000 496109.469000 -1.392000 0
153705.266000 496108.656000 0.373000 0
153706.125000 496108.313000 0.097000 0
153705.719000 496108.531000 0.319000 0
153705.203000 496108.906000 -0.045000 0
153705.953000 496108.969000 0.017000 0
153705.609000 496108.969000 -0.556000 0
153705.563000 496107.500000 -0.087000 0
153705.391000 496108.156000 -0.319000 0
153704.438000 496108.625000 -0.552000 0
153703.938000 496107.750000 -0.560000 0
153704.625000 496107.938000 -0.719000 0
153704.219000 496108.125000 -0.995000 0
153704.359000 496107.625000 -0.485000 0
153705.000000 496106.469000 -1.112000 0
153704.734000 496107.531000 -0.936000 0
153704.938000 496106.719000 -1.354000 0
153704.813000 496107.156000 -1.000000 0
153704.313000 496106.344000 -0.718000 0
153704.234000 496106.688000 -0.791000 0
153702.766000 496106.063000 -1.044000 0
153702.750000 496104.688000 -1.286000 0
153703.609000 496105.813000 -1.898000 0
153703.203000 496105.906000 -1.171000 0
153703.344000 496105.406000 -1.804000 0
153704.078000 496105.750000 -1.185000 0
153703.250000 496105.750000 -0.496000 0
153704.266000 496105.031000 -1.244000 0
153704.141000 496105.500000 -0.953000 0
153703.703000 496105.438000 -0.725000 0
153703.859000 496104.813000 -0.451000 0
153702.969000 496105.313000 -0.176000 0
153703.063000 496104.969000 -0.036000 0
153702.859000 496104.250000 -0.422000 0
153703.125000 496104.719000 0.200000 0
153703.031000 496103.625000 -0.254000 0
153703.500000 496103.250000 -0.113000 0
153703.328000 496102.469000 -0.535000 0
153702.531000 496102.531000 -1.075000 0
153702.359000 496101.594000 -1.206000 0
153702.063000 496101.375000 -1.431000 0
153701.703000 496100.938000 -2.098000 0
153701.281000 496101.219000 -2.425000 0
153700.500000 496101.313000 -2.978000 0
153699.688000 496101.469000 -3.526000 0
153700.281000 496100.469000 -2.693000 0
153700.359000 496100.156000 -2.451000 0
153699.984000 496101.594000 -3.528000 0
153699.719000 496101.281000 -2.813000 0
153700.219000 496100.688000 -3.122000 0
153700.156000 496100.938000 -3.362000 0
153700.891000 496101.219000 -2.623000 0
153701.344000 496100.969000 -2.187000 0
153701.594000 496101.313000 -1.952000 0
153701.813000 496102.344000 -0.472000 0
153701.219000 496102.781000 -0.372000 0
153701.047000 496103.438000 -0.606000 0
153701.297000 496102.469000 -0.236000 0
153701.719000 496102.719000 -0.338000 0
153701.906000 496101.938000 -0.723000 0
153702.234000 496102.063000 -0.766000 0
153702.609000 496102.281000 -0.821000 0
153702.828000 496102.594000 -0.957000 0
153702.906000 496102.344000 -0.839000 0
153704.250000 496103.344000 0.402000 0
153703.203000 496102.938000 -0.017000 0
153703.813000 496103.594000 0.293000 0
153704.047000 496102.688000 0.751000 0
153703.969000 496102.969000 0.662000 0
153703.891000 496103.313000 0.604000 0
153702.078000 496102.719000 0.448000 0
153703.375000 496103.719000 0.409000 0
153702.797000 496102.750000 0.708000 0
153702.734000 496103.000000 0.484000 0
153703.047000 496103.531000 0.737000 0
153702.438000 496102.938000 0.355000 0
153701.625000 496103.031000 -0.386000 0
153702.359000 496103.219000 0.161000 0
153702.000000 496103.031000 0.367000 0
153702.250000 496103.625000 0.475000 0
153702.156000 496104.031000 0.695000 0
153702.359000 496104.406000 0.644000 0
153702.266000 496104.813000 -0.473000 0
153701.969000 496104.719000 0.708000 0
153701.906000 496104.938000 0.342000 0
153701.188000 496104.750000 0.798000 0
153701.500000 496103.531000 0.101000 0
153701.734000 496104.063000 0.401000 0
153701.344000 496104.125000 -0.224000 0
153701.234000 496104.531000 -0.039000 0
153701.266000 496104.406000 0.860000 0
153700.828000 496104.313000 0.284000 0
153701.094000 496103.281000 0.079000 0
153700.547000 496104.063000 0.431000 0
153700.719000 496103.406000 0.629000 0
153700.625000 496103.750000 0.491000 0
153700.125000 496104.156000 0.518000 0
153699.922000 496103.531000 0.174000 0
153700.250000 496103.719000 0.118000 0
153699.469000 496103.563000 0.011000 0
153699.422000 496103.750000 -0.417000 0
153699.859000 496103.813000 0.033000 0
153699.734000 496104.281000 -0.894000 0
153699.906000 496105.031000 -1.379000 0
153701.031000 496105.375000 -0.784000 0
153700.078000 496104.344000 -0.240000 0
153700.438000 496104.500000 0.714000 0
153699.906000 496105.000000 -0.278000 0
153701.406000 496105.344000 0.010000 0
153700.688000 496104.844000 -0.351000 0
153701.109000 496105.063000 0.637000 0
153700.719000 496104.719000 0.456000 0
153700.359000 496104.781000 0.356000 0
153701.031000 496105.344000 0.487000 0
153700.234000 496105.281000 -0.111000 0
153700.469000 496105.656000 0.024000 0
153700.391000 496106.000000 -0.074000 0
153700.125000 496105.688000 0.006000 0
153699.531000 496105.094000 -0.240000 0
153699.313000 496105.938000 -0.873000 0
153699.469000 496105.313000 -0.675000 0
153699.391000 496105.625000 -0.920000 0
153699.250000 496104.438000 -0.477000 0
153699.109000 496104.969000 -0.945000 0
153698.797000 496104.906000 -0.987000 0
153698.016000 496104.906000 -0.890000 0
153698.078000 496104.688000 -0.529000 0
153697.688000 496104.500000 -1.110000 0
153699.203000 496103.313000 -0.473000 0
153698.922000 496104.406000 -0.340000 0
153697.656000 496103.188000 -0.645000 0
153697.766000 496102.781000 -0.797000 0
153698.844000 496103.125000 -0.178000 0
153697.922000 496103.563000 -0.775000 0
153697.984000 496103.313000 -0.599000 0
153698.234000 496104.094000 -0.244000 0
153697.453000 496104.000000 -0.020000 0
153697.516000 496103.719000 0.145000 0
153698.703000 496103.688000 0.499000 0
153698.047000 496103.094000 -0.080000 0
153697.766000 496102.781000 0.424000 0
153697.828000 496102.500000 0.688000 0
153698.109000 496102.844000 0.336000 0
153698.953000 496102.719000 0.776000 0
153698.641000 496102.500000 0.269000 0
153698.719000 496102.219000 0.506000 0
153698.375000 496101.813000 0.469000 0
153698.703000 496100.594000 0.875000 0
153698.453000 496101.531000 0.710000 0
153698.375000 496100.438000 0.729000 0
153697.563000 496100.688000 -0.448000 0
153698.328000 496100.563000 -0.029000 0
153697.469000 496101.031000 -0.435000 0
153698.234000 496100.938000 0.035000 0
153697.781000 496101.313000 -0.164000 0
153697.875000 496100.938000 -0.294000 0
153699.828000 496102.219000 -1.244000 0
153699.516000 496102.125000 -1.078000 0
153699.875000 496102.031000 -0.613000 0
153699.141000 496101.938000 0.731000 0
153698.891000 496101.531000 0.589000 0
153699.500000 496102.156000 0.444000 0
153699.875000 496102.000000 0.579000 0
153699.563000 496101.906000 0.680000 0
153699.281000 496101.438000 0.052000 0
153699.734000 496101.250000 0.765000 0
153701.391000 496102.125000 -0.345000 0
153701.328000 496102.375000 0.568000 0
153700.063000 496101.313000 0.476000 0
153699.984000 496101.625000 0.334000 0
153700.297000 496102.094000 -0.073000 0
153700.344000 496101.938000 0.714000 0
153700.438000 496101.531000 0.371000 0
153700.703000 496101.938000 0.012000 0
153700.469000 496101.438000 1.267000 0
153701.063000 496102.094000 0.757000 0
153701.406000 496102.063000 0.731000 0
153700.813000 496101.500000 0.875000 0
153701.141000 496101.750000 0.741000 0
153700.563000 496101.063000 1.254000 0
153701.281000 496101.219000 1.357000 0
153701.422000 496100.656000 1.781000 0
153700.953000 496100.938000 1.395000 0
153701.766000 496100.656000 0.796000 0
153702.250000 496100.656000 0.758000 0
153703.219000 496099.906000 0.677000 0
153703.125000 496100.250000 0.624000 0
153703.391000 496100.438000 -0.012000 0
153703.063000 496100.500000 0.283000 0
153703.250000 496100.969000 -0.640000 0
153702.422000 496101.344000 -0.841000 0
153703.328000 496100.688000 -0.298000 0
153702.734000 496100.188000 -0.184000 0
153702.844000 496101.344000 -0.329000 0
153703.016000 496100.688000 -0.299000 0
153701.453000 496100.563000 0.231000 0
153700.984000 496100.875000 -1.473000 0
153701.422000 496100.688000 -0.613000 0
153701.125000 496098.938000 -1.483000 0
153701.266000 496098.344000 -1.117000 0
153701.203000 496098.625000 -1.438000 0
153700.422000 496099.875000 -2.206000 0
153700.500000 496099.625000 -1.888000 0
153700.188000 496099.531000 -1.912000 0
153700.547000 496099.438000 -1.290000 0
153700.906000 496098.063000 -1.294000 0
153699.922000 496098.969000 -1.529000 0
153699.609000 496098.781000 -0.723000 0
153700.344000 496098.906000 -0.425000 0
153699.734000 496098.250000 0.008000 0
153700.484000 496098.375000 0.270000 0
153700.047000 496098.438000 0.345000 0
153699.844000 496097.844000 -0.359000 0
153699.922000 496097.531000 -0.280000 0
153700.359000 496097.250000 -0.320000 0
153700.813000 496097.125000 -0.584000 0
153700.984000 496097.719000 0.071000 0
153700.938000 496097.906000 -0.594000 0
153701.109000 496097.250000 -0.429000 0
153701.578000 496097.188000 -0.340000 0
153701.344000 496098.063000 -0.930000 0
153701.422000 496097.781000 -0.743000 0
153701.891000 496097.344000 -0.434000 0
153701.641000 496098.313000 -0.666000 0
153701.719000 496098.000000 -0.590000 0
153701.813000 496097.656000 -0.679000 0
153702.063000 496098.188000 -0.785000 0
153702.234000 496097.531000 -0.790000 0
153703.094000 496097.344000 -1.301000 0
153703.453000 496097.406000 -1.415000 0
153703.797000 496098.875000 -0.764000 0
153703.969000 496098.188000 -0.653000 0
153703.609000 496098.406000 -0.935000 0
153702.828000 496099.813000 -0.249000 0
153703.375000 496099.344000 -0.122000 0
153702.906000 496099.531000 0.071000 0
153702.109000 496099.344000 -0.336000 0
153703.094000 496098.781000 -0.252000 0
153703.016000 496099.063000 -0.482000 0
153702.531000 496099.531000 0.417000 0
153702.781000 496098.563000 0.719000 0
153702.391000 496098.281000 0.671000 0
153702.047000 496098.281000 0.626000 0
153701.922000 496098.750000 -0.083000 0
153702.234000 496098.875000 0.363000 0
153702.156000 496099.188000 0.231000 0
153701.984000 496098.500000 0.372000 0
153701.625000 496098.406000 0.895000 0
153701.750000 496099.406000 1.004000 0
153701.844000 496099.031000 0.956000 0
153701.125000 496098.906000 0.931000 0
153701.547000 496098.688000 0.689000 0
153700.656000 496099.000000 -0.531000 0
153701.594000 496100.031000 -0.499000 0
153700.719000 496098.781000 0.029000 0
153701.703000 496099.594000 0.499000 0
153701.000000 496099.375000 0.134000 0
153700.641000 496100.781000 1.396000 0
153700.719000 496100.469000 1.547000 0
153701.203000 496100.031000 0.477000 0
153699.578000 496100.281000 0.763000 0
153699.953000 496100.438000 0.241000 0
153700.719000 496100.469000 0.237000 0
153700.031000 496100.125000 0.271000 0
153700.313000 496100.344000 0.690000 0
153699.969000 496098.781000 0.211000 0
153700.125000 496099.750000 0.236000 0
153700.453000 496099.781000 1.134000 0
153700.547000 496099.438000 1.089000 0
153700.203000 496099.438000 0.331000 0
153699.672000 496099.875000 0.626000 0
153700.219000 496099.344000 1.193000 0
153699.484000 496099.250000 0.981000 0
153698.813000 496100.125000 0.415000 0
153699.438000 496099.438000 0.517000 0
153699.016000 496099.344000 0.201000 0
153698.734000 496099.000000 0.470000 0
153698.422000 496098.813000 -0.457000 0
153698.094000 496098.656000 -0.493000 0
153698.000000 496099.031000 -0.309000 0
153697.906000 496099.406000 -0.128000 0
153697.719000 496100.094000 -0.179000 0
153697.578000 496099.094000 -0.484000 0
153697.844000 496099.594000 -0.838000 0
153697.500000 496099.406000 -0.556000 0
153719.797000 496066.250000 -1.238000 1
153720.328000 496065.500000 -1.407000 1
153721.234000 496065.156000 -1.420000 1
153721.797000 496064.438000 -1.607000 1
153722.438000 496065.031000 -1.317000 1
153723.078000 496065.563000 -1.429000 1
153723.969000 496065.250000 -1.728000 1
153724.797000 496065.156000 -1.491000 1
153725.156000 496065.156000 -1.844000 1
153724.281000 496065.656000 -2.176000 1
153724.844000 496066.375000 -2.448000 1
153725.234000 496066.594000 -2.716000 1
153724.906000 496066.125000 -2.066000 1
153724.578000 496066.000000 -2.301000 1
153724.438000 496065.063000 -1.814000 1
153724.359000 496065.375000 -1.971000 1
153723.906000 496065.500000 -2.073000 1
153724.047000 496064.969000 -1.610000 1
153723.797000 496065.938000 -1.881000 1
153724.125000 496066.250000 -1.328000 1
153724.172000 496066.125000 -0.599000 1
153724.563000 496066.031000 0.294000 1
153725.281000 496066.406000 -0.032000 1
153725.172000 496066.844000 -0.772000 1
153725.984000 496066.875000 -1.255000 1
153726.578000 496067.563000 -1.220000 1
153726.438000 496068.094000 -1.654000 1
153725.594000 496068.406000 -2.025000 1
153724.766000 496068.406000 -2.523000 1
153724.016000 496068.156000 -1.935000 1
153723.172000 496068.344000 -2.121000 1
153723.422000 496068.969000 -1.522000 1
153722.672000 496068.531000 -1.061000 1
153722.047000 496067.938000 -1.241000 1
153722.563000 496067.500000 -0.686000 1
153721.781000 496067.531000 -0.084000 1
153722.281000 496067.031000 0.405000 1
153722.859000 496066.375000 0.044000 1
153723.313000 496066.094000 0.101000 1
153723.484000 496065.375000 0.011000 1
153724.406000 496065.156000 -0.287000 1
153725.203000 496065.031000 0.041000 1
153725.047000 496064.125000 -0.190000 1
153725.594000 496063.500000 -0.487000 1
153726.281000 496064.156000 -0.794000 1
153727.109000 496063.781000 -1.040000 1
153727.391000 496064.438000 -1.047000 1
153728.031000 496064.688000 -1.744000 1
153728.172000 496065.594000 -1.956000 1
153728.578000 496065.844000 -2.212000 1
153728.813000 496066.344000 -2.697000 1
153727.656000 496064.656000 -0.562000 1
153727.828000 496065.469000 -0.350000 1
153727.094000 496065.594000 -0.797000 1
153726.766000 496065.125000 -0.045000 1
153726.328000 496065.563000 0.193000 1
153726.938000 496066.188000 0.078000 1
153727.484000 496066.781000 0.628000 1
153727.281000 496067.594000 1.101000 1
153727.422000 496068.469000 0.668000 1
153726.625000 496068.656000 1.239000 1
153727.172000 496069.438000 1.511000 1
153727.391000 496070.406000 1.417000 1
153728.219000 496070.156000 1.290000 1
153728.844000 496070.875000 1.421000 1
153729.391000 496070.313000 0.817000 1
153729.969000 496069.656000 0.603000 1
153730.172000 496068.844000 0.307000 1
153731.047000 496068.500000 0.587000 1
153731.594000 496067.844000 0.417000 1
153732.266000 496068.156000 -0.179000 1
153732.859000 496067.563000 -0.402000 1
153732.563000 496067.094000 -0.355000 1
153732.766000 496067.906000 -0.455000 1
153731.016000 496067.188000 0.727000 1
153730.391000 496066.438000 0.743000 1
153730.375000 496066.531000 -0.240000 1
153731.031000 496067.125000 -0.645000 1
153731.500000 496066.719000 -0.766000 1
153732.063000 496066.094000 -0.747000 1
153731.766000 496065.719000 -1.587000 1
153732.313000 496066.531000 -1.716000 1
153733.063000 496066.813000 -1.741000 1
153733.969000 496066.469000 -1.747000 1
153734.156000 496067.031000 -1.643000 1
153733.953000 496067.844000 -1.409000 1
153734.625000 496068.406000 -1.229000 1
153735.156000 496069.125000 -1.457000 1
153734.875000 496069.031000 -1.786000 1
153734.484000 496068.938000 -1.766000 1
153733.953000 496069.531000 -1.263000 1
153733.313000 496069.031000 -1.371000 1
153732.750000 496069.531000 -0.971000 1
153732.547000 496070.313000 -0.733000 1
153732.563000 496070.250000 0.168000 1
153731.688000 496070.406000 0.412000 1
153731.000000 496070.125000 -0.111000 1
153730.797000 496070.938000 0.295000 1
153730.219000 496071.688000 0.594000 1
153731.016000 496071.563000 1.119000 1
153731.703000 496072.000000 0.658000 1
153732.047000 496072.219000 0.028000 1
153731.875000 496071.375000 -0.414000 1
153732.688000 496071.406000 -0.415000 1
153732.563000 496071.875000 -1.032000 1
153732.188000 496071.656000 -1.884000 1
153731.672000 496072.156000 -2.431000 1
153732.313000 496072.875000 -2.378000 1
153732.938000 496073.469000 -2.161000 1
153732.953000 496073.406000 -1.231000 1
153732.641000 496072.875000 -0.879000 1
153731.859000 496072.938000 -1.068000 1
153731.703000 496073.531000 -0.294000 1
153730.859000 496073.594000 -0.649000 1
153730.641000 496074.438000 -0.232000 1
153731.016000 496074.656000 -1.042000 1
153730.469000 496075.125000 -1.443000 1
153730.672000 496076.000000 -1.230000 1
153729.891000 496075.906000 -0.833000 1
153729.391000 496076.344000 -0.194000 1
153728.828000 496075.625000 -0.080000 1
153728.156000 496075.063000 0.376000 1
153727.328000 496075.000000 -0.160000 1
153726.641000 496074.656000 -0.539000 1
153725.828000 496074.594000 -1.054000 1
153725.250000 496073.938000 -1.089000 1
153724.688000 496073.125000 -1.233000 1
153724.109000 496072.531000 -0.738000 1
153723.172000 496072.813000 -0.716000 1
153722.578000 496072.250000 -1.046000 1
153723.000000 496072.063000 -0.764000 1
153722.766000 496071.531000 -0.049000 1
153721.922000 496071.438000 -0.573000 1
153722.047000 496070.938000 0.192000 1
153721.891000 496070.125000 -0.154000 1
153722.281000 496070.063000 0.684000 1
153723.000000 496070.594000 0.383000 1
153723.625000 496071.094000 0.558000 1
153724.531000 496070.875000 0.892000 1
153724.906000 496071.063000 -0.003000 1
153725.625000 496071.250000 -0.593000 1
153724.984000 496072.000000 -0.458000 1
153725.563000 496072.750000 -0.291000 1
153726.297000 496072.781000 0.018000 1
153726.969000 496073.406000 -0.031000 1
153727.859000 496072.969000 0.051000 1
153728.063000 496073.906000 -0.148000 1
153727.641000 496073.813000 -0.657000 1
153728.203000 496073.344000 0.268000 1
153729.016000 496073.344000 0.203000 1
153729.859000 496073.031000 0.600000 1
153729.641000 496072.500000 -0.031000 1
153729.016000 496071.781000 -0.044000 1
153728.719000 496071.344000 -0.521000 1
153729.313000 496070.625000 -0.376000 1
153728.484000 496070.531000 0.169000 1
153727.672000 496070.719000 0.336000 1
153727.359000 496070.500000 -0.383000 1
153726.828000 496070.750000 -1.125000 1
153726.328000 496071.250000 -1.821000 1
153725.578000 496071.438000 -2.308000 1
153725.734000 496070.844000 -3.051000 1
153725.406000 496070.375000 -2.470000 1
153724.953000 496070.875000 -1.755000 1
153724.656000 496070.438000 -3.042000 1
153724.813000 496069.844000 -2.593000 1
153724.734000 496070.125000 -2.834000 1
153725.922000 496070.125000 -1.949000 1
153725.094000 496070.344000 -2.385000 1
153725.859000 496070.344000 -2.447000 1
153725.781000 496070.656000 -2.609000 1
153725.750000 496072.031000 -2.754000 1
153725.281000 496070.813000 -2.182000 1
153725.422000 496072.000000 -2.625000 1
153725.141000 496071.406000 -2.463000 1
153725.781000 496071.906000 -2.123000 1
153726.578000 496071.719000 -2.546000 1
153726.000000 496071.063000 -2.604000 1
153725.859000 496071.594000 -1.939000 1
153726.266000 496071.500000 -2.258000 1
153726.031000 496070.906000 -1.961000 1
153726.438000 496070.875000 -2.012000 1
153727.125000 496071.438000 -0.884000 1
153726.656000 496071.406000 -0.066000 1
153726.063000 496070.813000 0.259000 1
153725.688000 496071.031000 1.085000 1
153725.031000 496071.781000 1.081000 1
153724.875000 496072.375000 0.884000 1
153724.109000 496072.531000 0.478000 1
153723.344000 496072.156000 0.493000 1
153723.781000 496072.156000 0.716000 1
153723.719000 496072.406000 0.341000 1
153724.484000 496072.656000 0.667000 1
153724.797000 496072.719000 0.813000 1
153724.625000 496072.094000 1.239000 1
153724.953000 496072.094000 1.083000 1
153726.406000 496070.938000 1.741000 1
153726.656000 496071.438000 1.195000 1
153727.328000 496072.031000 1.200000 1
153728.156000 496071.844000 0.934000 1
153728.250000 496071.469000 0.866000 1
153727.609000 496072.500000 1.001000 1
153727.266000 496072.250000 0.846000 1
153726.984000 496071.969000 0.899000 1
153727.063000 496071.656000 1.007000 1
153726.719000 496071.156000 1.611000 1
153725.375000 496070.500000 1.395000 1
153725.953000 496069.938000 0.943000 1
153726.078000 496069.500000 1.737000 1
153725.641000 496069.469000 1.543000 1
153725.531000 496068.625000 1.029000 1
153725.266000 496068.063000 1.804000 1
153724.453000 496067.875000 1.493000 1
153723.938000 496068.469000 1.308000 1
153724.391000 496068.125000 1.097000 1
153724.109000 496067.750000 1.374000 1
153725.063000 496067.281000 1.706000 1
153724.938000 496067.750000 1.160000 1
153725.766000 496067.688000 1.457000 1
153725.906000 496067.188000 0.812000 1
153726.094000 496066.438000 0.803000 1
153726.266000 496067.063000 0.488000 1
153724.953000 496067.688000 1.978000 1
153725.031000 496069.000000 0.322000 1
153724.828000 496068.188000 1.379000 1
153724.734000 496068.500000 1.229000 1
153725.672000 496068.063000 1.558000 1
153725.109000 496068.688000 1.570000 1
153725.047000 496068.938000 1.327000 1
153725.438000 496069.000000 1.125000 1
153726.672000 496069.906000 0.606000 1
153726.188000 496069.094000 0.382000 1
153727.094000 496069.750000 0.387000 1
153726.375000 496069.594000 0.779000 1
153726.031000 496069.688000 1.296000 1
153726.266000 496070.000000 1.031000 1
153725.234000 496069.750000 1.326000 1
153725.547000 496069.844000 1.565000 1
153725.141000 496070.156000 1.579000 1
153725.453000 496070.188000 1.627000 1
153725.828000 496070.469000 1.436000 1
153725.266000 496070.906000 1.599000 1
153725.734000 496070.781000 1.430000 1
153726.078000 496070.719000 1.130000 1
153726.609000 496070.188000 0.402000 1
153726.188000 496070.313000 0.873000 1
153726.563000 496071.813000 0.210000 1
153727.781000 496071.844000 -1.181000 1
153728.031000 496072.313000 -1.038000 1
153728.781000 496072.656000 -0.601000 1
153728.734000 496072.875000 -1.042000 1
153728.125000 496071.938000 -1.160000 1
153727.406000 496071.750000 -0.899000 1
153727.031000 496071.813000 -0.741000 1
153726.703000 496071.250000 -1.689000 1
153726.781000 496070.969000 -1.576000 1
153726.547000 496070.406000 -1.233000 1
153727.234000 496071.031000 -1.112000 1
153727.578000 496071.031000 -0.980000 1
153727.500000 496070.000000 0.016000 1
153727.266000 496070.906000 -0.303000 1
153727.391000 496070.406000 0.325000 1
153727.578000 496071.063000 0.207000 1
153728.016000 496070.906000 0.411000 1
153728.375000 496070.969000 0.419000 1
153729.094000 496069.969000 -0.525000 1
153728.313000 496069.781000 -1.068000 1
153728.359000 496069.594000 -0.561000 1
153728.813000 496069.281000 -0.493000 1
153728.672000 496069.844000 -1.034000 1
153728.750000 496069.531000 -0.827000 1
153729.422000 496070.188000 -0.686000 1
153727.938000 496071.250000 -0.866000 1
153728.578000 496071.906000 -0.990000 1
153728.875000 496070.750000 -0.172000 1
153728.281000 496071.344000 -0.753000 1
153728.781000 496071.125000 -0.105000 1
153729.484000 496071.500000 -0.084000 1
153728.578000 496071.875000 0.257000 1
153729.094000 496071.438000 -0.134000 1
153728.938000 496072.063000 -0.323000 1
153728.844000 496072.406000 -0.356000 1
153730.391000 496072.500000 -0.403000 1
153730.813000 496072.313000 0.077000 1
153730.719000 496072.688000 -0.001000 1
153729.406000 496071.813000 -0.157000 1
153729.234000 496072.500000 -0.306000 1
153729.578000 496072.719000 -0.448000 1
153730.016000 496072.438000 -0.308000 1
153729.313000 496072.188000 -0.014000 1
153730.047000 496073.813000 0.454000 1
153729.531000 496074.313000 0.368000 1
153729.422000 496074.781000 -0.496000 1
153729.781000 496074.844000 -0.724000 1
153730.125000 496073.500000 0.625000 1
153730.203000 496073.219000 0.799000 1
153729.469000 496073.156000 1.019000 1
153729.719000 496073.594000 0.130000 1
153729.281000 496073.875000 -0.058000 1
153729.328000 496073.688000 0.417000 1
153729.438000 496073.250000 0.229000 1
153727.563000 496072.656000 0.333000 1
153728.313000 496072.969000 0.205000 1
153727.922000 496072.750000 0.417000 1
153727.750000 496073.406000 0.277000 1
153727.531000 496072.813000 -0.197000 1
153727.453000 496073.125000 -0.336000 1
153726.906000 496073.625000 -0.358000 1
153727.328000 496073.563000 0.016000 1
153727.141000 496072.719000 0.074000 1
153727.078000 496073.000000 -0.089000 1
153725.750000 496073.500000 -0.314000 1
153726.219000 496073.094000 -0.159000 1
153726.047000 496072.344000 -0.637000 1
153725.813000 496073.250000 0.006000 1
153725.484000 496073.031000 -0.584000 1
153725.641000 496072.406000 -0.385000 1
153725.344000 496072.344000 -0.435000 1
153726.141000 496071.969000 -0.595000 1
153726.219000 496071.688000 -0.366000 1
153726.297000 496071.375000 -0.282000 1
153726.016000 496071.000000 -0.435000 1
153725.906000 496071.406000 -0.262000 1
153724.313000 496071.750000 0.191000 1
153724.781000 496071.531000 -0.715000 1
153725.672000 496071.031000 -0.134000 1
153725.063000 496071.719000 -0.250000 1
153725.203000 496071.156000 0.187000 1
153724.719000 496071.750000 1.211000 1
153725.188000 496071.188000 1.469000 1
153724.344000 496070.031000 0.563000 1
153723.938000 496069.875000 1.015000 1
153723.109000 496070.219000 1.337000 1
153723.234000 496069.719000 1.007000 1
153724.797000 496071.438000 1.321000 1
153724.703000 496070.250000 1.078000 1
153724.969000 496070.813000 1.359000 1
153724.891000 496071.094000 1.289000 1
153724.625000 496070.531000 0.839000 1
153724.406000 496071.344000 0.020000 1
153724.203000 496070.594000 1.134000 1
153723.875000 496071.813000 0.700000 1
153723.750000 496070.594000 1.134000 1
153724.109000 496070.906000 1.116000 1
153723.938000 496071.563000 0.926000 1
153724.047000 496071.188000 0.891000 1
153723.703000 496070.781000 0.688000 1
153723.328000 496070.781000 0.897000 1
153722.875000 496069.469000 0.673000 1
153722.469000 496069.344000 0.582000 1
153721.828000 496068.781000 0.370000 1
153721.547000 496068.469000 -0.400000 1
153721.391000 496069.063000 -0.642000 1
153721.438000 496068.875000 -0.133000 1
153721.750000 496069.094000 0.250000 1
153722.797000 496069.781000 0.555000 1
153722.359000 496069.719000 0.796000 1
153722.047000 496069.531000 0.302000 1
153722.266000 496070.094000 -0.353000 1
153721.828000 496070.375000 -0.410000 1
153722.625000 496070.438000 0.407000 1
153722.000000 496071.156000 -0.370000 1
153722.547000 496070.750000 0.330000 1
153723.578000 496071.250000 -0.180000 1
153723.281000 496070.969000 0.329000 1
153722.484000 496071.031000 0.056000 1
153723.219000 496071.250000 0.078000 1
153722.875000 496071.094000 -0.358000 1
153723.141000 496071.531000 -0.093000 1
153723.500000 496071.531000 -0.374000 1
153722.766000 496072.938000 -1.189000 1
153722.563000 496073.719000 -0.819000 1
153722.328000 496074.625000 -1.149000 1
153722.484000 496075.500000 -1.142000 1
153723.281000 496075.719000 -0.647000 1
153723.828000 496076.438000 -0.666000 1
153723.469000 496076.594000 -1.360000 1
153722.594000 496076.750000 -1.536000 1
153721.938000 496076.188000 -1.974000 1
153721.375000 496076.844000 -1.884000 1
153721.156000 496077.688000 -1.440000 1
153721.766000 496078.281000 -0.981000 1
153722.172000 496078.375000 -1.810000 1
153722.984000 496078.469000 -2.227000 1
153723.719000 496078.563000 -2.798000 1
153724.375000 496078.781000 -2.220000 1
153724.875000 496078.281000 -1.517000 1
153725.750000 496078.125000 -1.807000 1
153725.500000 496079.063000 -2.028000 1
153725.031000 496079.531000 -1.873000 1
153724.531000 496079.656000 -1.517000 1
153723.734000 496079.781000 -1.293000 1
153723.109000 496079.250000 -0.732000 1
153723.281000 496078.563000 -0.547000 1
153723.859000 496078.063000 -0.922000 1
153723.234000 496077.469000 -0.833000 1
153722.766000 496077.719000 -0.810000 1
153724.031000 496077.375000 -0.985000 1
153724.766000 496077.250000 -1.555000 1
153725.281000 496076.719000 -2.161000 1
153725.625000 496077.188000 -1.472000 1
153725.172000 496077.156000 -1.813000 1
153724.484000 496076.875000 -1.498000 1
153724.406000 496077.188000 -1.704000 1
153723.500000 496077.719000 -1.161000 1
153723.781000 496078.344000 -1.111000 1
153723.141000 496077.844000 -0.749000 1
153723.047000 496078.188000 -0.692000 1
153722.953000 496078.563000 -0.576000 1
153722.719000 496079.469000 -1.032000 1
153721.859000 496079.594000 -1.104000 1
153721.188000 496079.063000 -1.562000 1
153720.609000 496079.813000 -1.419000 1
153721.172000 496080.531000 -1.625000 1
153721.969000 496080.781000 -2.061000 1
153722.016000 496080.594000 -1.561000 1
153722.438000 496080.531000 -0.968000 1
153721.609000 496080.531000 -1.564000 1
153720.094000 496080.250000 -1.719000 1
153720.828000 496080.438000 -1.676000 1
153720.438000 496080.469000 -1.542000 1
153720.156000 496079.969000 -1.444000 1
153720.906000 496080.125000 -1.543000 1
153720.547000 496080.063000 -1.765000 1
153720.219000 496079.719000 -1.276000 1
153721.000000 496079.781000 -1.611000 1
153720.703000 496079.500000 -1.331000 1
153720.875000 496078.781000 -1.433000 1
153721.250000 496080.250000 -1.406000 1
153722.094000 496080.281000 -1.383000 1
153722.609000 496079.906000 -2.016000 1
153722.922000 496079.938000 -1.996000 1
153721.688000 496080.250000 -1.338000 1
153721.313000 496079.969000 -1.261000 1
153721.781000 496079.906000 -1.326000 1
153722.156000 496080.031000 -1.187000 1
153721.938000 496079.313000 -0.956000 1
153722.281000 496079.531000 -1.534000 1
153723.188000 496078.906000 -0.738000 1
153723.016000 496079.563000 -0.759000 1
153723.000000 496079.625000 -1.740000 1
153723.266000 496080.313000 -1.664000 1
153723.609000 496079.000000 -1.237000 1
153723.344000 496080.063000 -1.375000 1
153723.438000 496079.688000 -1.409000 1
153723.656000 496080.094000 -1.291000 1
153723.844000 496079.344000 -1.521000 1
153725.406000 496079.438000 -2.057000 1
153726.047000 496079.938000 -2.163000 1
153726.531000 496079.813000 -2.543000 1
153726.422000 496078.500000 -2.426000 1
153726.625000 496077.719000 -2.697000 1
153727.391000 496078.031000 -2.481000 1
153727.906000 496077.625000 -1.856000 1
153727.219000 496077.125000 -2.056000 1
153726.594000 496076.375000 -2.247000 1
153726.422000 496075.500000 -2.282000 1
153727.047000 496076.063000 -2.269000 1
153727.828000 496076.344000 -2.405000 1
153728.531000 496076.750000 -2.154000 1
153729.109000 496077.438000 -2.497000 1
153729.297000 496078.188000 -2.355000 1
153728.469000 496078.406000 -2.366000 1
153729.125000 496078.844000 -2.502000 1
153729.828000 496077.625000 -2.485000 1
153729.016000 496077.813000 -2.374000 1
153729.469000 496077.500000 -2.389000 1
153728.672000 496076.219000 -1.596000 1
153727.906000 496076.000000 -1.095000 1
153727.453000 496076.281000 -0.289000 1
153726.766000 496075.750000 -0.766000 1
153726.953000 496076.438000 -0.999000 1
153728.141000 496076.719000 -0.224000 1
153727.297000 496076.844000 -0.794000 1
153727.016000 496076.219000 -0.534000 1
153727.391000 496076.469000 -0.847000 1
153727.750000 496076.656000 -1.317000 1
153728.734000 496075.969000 -1.244000 1
153728.984000 496076.438000 -2.004000 1
153729.469000 496076.063000 -2.325000 1
153729.219000 496075.563000 -2.593000 1
153728.391000 496075.750000 -2.228000 1
153728.203000 496074.906000 -2.575000 1
153727.797000 496074.938000 -2.686000 1
153727.703000 496075.313000 -2.494000 1
153728.109000 496075.219000 -2.612000 1
153728.641000 496076.375000 -2.293000 1
153728.016000 496075.656000 -2.366000 1
153728.281000 496076.125000 -2.187000 1
153728.219000 496076.406000 -2.494000 1
153727.594000 496075.750000 -2.129000 1
153727.375000 496076.563000 -1.846000 1
153727.313000 496076.813000 -1.920000 1
153727.703000 496076.813000 -1.976000 1
153728.672000 496077.656000 -1.503000 1
153729.469000 496077.500000 -1.141000 1
153729.641000 496076.844000 -1.082000 1
153730.406000 496077.031000 -1.303000 1
153729.906000 496077.313000 -1.115000 1
153729.563000 496077.188000 -1.045000 1
153728.625000 496077.813000 -2.080000 1
153728.078000 496076.938000 -1.756000 1
153727.625000 496077.094000 -2.142000 1
153728.234000 496077.906000 -1.943000 1
153727.984000 496077.281000 -1.753000 1
153727.531000 496077.469000 -2.074000 1
153727.422000 496077.875000 -1.879000 1
153727.000000 496078.031000 -2.544000 1
153726.875000 496078.469000 -2.319000 1
153726.297000 496077.531000 -1.901000 1
153725.547000 496077.500000 -1.771000 1
153726.219000 496077.875000 -1.860000 1
153726.109000 496078.281000 -1.568000 1
153724.094000 496078.406000 -1.108000 1
153724.281000 496077.656000 -1.295000 1
153725.563000 496078.813000 -1.707000 1
153725.078000 496077.531000 -1.761000 1
153724.688000 496077.594000 -1.606000 1
153725.453000 496077.875000 -1.599000 1
153725.188000 496078.906000 -1.630000 1
153725.000000 496077.813000 -1.952000 1
153724.484000 496078.375000 -1.247000 1
153724.234000 496079.344000 -1.473000 1
153725.109000 496079.188000 -1.786000 1
153724.781000 496078.625000 -1.432000 1
153724.625000 496079.250000 -1.566000 1
153724.734000 496078.844000 -1.877000 1
153724.438000 496078.563000 -1.872000 1
153724.078000 496078.469000 -2.199000 1
153724.016000 496078.688000 -2.597000 1
153722.469000 496078.844000 -2.806000 1
153723.375000 496078.188000 -1.837000 1
153723.250000 496078.688000 -2.612000 1
153722.531000 496078.594000 -2.527000 1
153722.391000 496079.125000 -1.750000 1
153722.578000 496078.438000 -0.637000 1
153721.266000 496078.781000 -1.417000 1
153721.578000 496079.000000 -1.018000 1
153722.313000 496077.875000 -1.138000 1
153722.203000 496078.281000 -0.882000 1
153721.688000 496078.563000 -1.259000 1
153721.938000 496077.594000 -0.957000 1
153721.859000 496077.906000 -1.040000 1
153721.359000 496078.406000 -1.506000 1
153721.000000 496078.344000 -1.706000 1
153721.109000 496077.875000 -1.998000 1
153721.422000 496078.125000 -1.256000 1
153721.297000 496077.156000 -2.079000 1
153721.469000 496076.563000 -1.846000 1
153721.734000 496076.969000 -1.636000 1
153721.828000 496076.594000 -1.752000 1
153722.281000 496076.250000 -1.989000 1
153722.063000 496077.125000 -1.296000 1
153722.438000 496077.375000 -1.768000 1
153722.516000 496077.031000 -1.648000 1
153723.594000 496077.375000 -1.008000 1
153722.703000 496076.375000 -1.695000 1
153723.078000 496076.500000 -1.525000 1
153723.375000 496076.938000 -1.442000 1
153723.688000 496077.000000 -1.128000 1
153723.844000 496075.125000 -0.428000 1
153724.047000 496074.313000 -0.845000 1
153723.844000 496073.563000 -0.625000 1
153723.750000 496073.938000 -0.582000 1
153724.313000 496074.563000 -1.155000 1
153724.484000 496075.656000 -0.836000 1
153723.641000 496074.313000 -0.511000 1
153723.516000 496074.844000 -1.130000 1
153723.969000 496074.656000 -0.843000 1
153724.172000 496075.156000 -0.375000 1
153723.531000 496076.344000 -1.026000 1
153723.906000 496076.125000 -0.577000 1
153724.016000 496075.750000 -0.712000 1
153723.141000 496076.281000 -0.995000 1
153723.750000 496075.500000 -0.336000 1
153723.609000 496076.063000 -0.684000 1
153723.359000 496075.375000 -0.529000 1
153723.203000 496076.031000 -0.556000 1
153722.016000 496075.844000 -1.823000 1
153722.359000 496075.938000 -1.851000 1
153722.109000 496075.500000 -1.865000 1
153722.781000 496076.063000 -1.497000 1
153722.906000 496075.594000 -0.809000 1
153722.828000 496075.844000 -1.059000 1
153722.406000 496075.813000 -1.191000 1
153722.234000 496075.031000 -1.115000 1
153723.250000 496074.250000 -0.547000 1
153723.359000 496073.813000 -0.892000 1
153722.922000 496073.781000 -1.069000 1
153722.906000 496072.406000 -0.750000 1
153723.094000 496073.156000 -0.919000 1
153722.828000 496072.719000 -0.728000 1
153723.313000 496072.281000 -0.339000 1
153723.281000 496072.406000 -1.072000 1
153723.516000 496073.188000 -0.661000 1
153724.688000 496071.875000 -0.689000 1
153723.922000 496073.250000 -0.571000 1
153723.672000 496072.625000 -1.227000 1
153724.469000 496072.688000 -0.269000 1
153723.734000 496072.375000 -0.944000 1
153724.016000 496072.875000 -0.620000 1
153724.719000 496073.031000 -0.363000 1
153724.266000 496073.531000 -1.175000 1
153724.422000 496072.906000 -0.769000 1
153724.328000 496073.250000 -0.909000 1
153724.422000 496074.125000 -1.419000 1
153724.313000 496074.594000 -2.270000 1
153724.688000 496074.844000 -2.388000 1
153724.750000 496074.594000 -0.912000 1
153725.094000 496073.250000 -0.851000 1
153725.422000 496073.281000 -0.964000 1
153726.141000 496073.375000 -1.531000 1
153725.031000 496073.500000 -1.097000 1
153724.859000 496074.219000 -1.042000 1
153724.938000 496073.906000 -0.831000 1
153725.328000 496073.656000 -0.831000 1
153725.156000 496074.281000 -1.033000 1
153725.594000 496074.063000 -0.667000 1
153725.359000 496075.031000 -1.002000 1
153725.531000 496074.313000 -1.079000 1
153725.734000 496074.969000 -0.991000 1
153725.969000 496074.063000 -0.429000 1
153726.844000 496073.906000 -0.563000 1
153726.250000 496074.844000 -1.148000 1
153726.344000 496074.438000 -0.273000 1
153726.594000 496074.844000 -0.947000 1
153726.703000 496074.469000 0.002000 1
153727.609000 496075.625000 -0.307000 1
153726.891000 496075.281000 0.076000 1
153727.438000 496074.625000 -0.298000 1
153727.250000 496075.313000 -0.175000 1
153728.375000 496074.219000 -0.003000 1
153727.469000 496074.469000 0.487000 1
153727.953000 496074.313000 0.115000 1
153728.297000 496074.563000 -0.163000 1
153727.688000 496075.375000 0.131000 1
153727.781000 496075.000000 -0.040000 1
153727.844000 496074.781000 0.362000 1
153728.625000 496074.813000 0.439000 1
153727.922000 496075.969000 -0.047000 1
153728.063000 496075.406000 0.407000 1
153728.234000 496076.313000 -0.257000 1
153728.609000 496074.875000 -0.464000 1
153728.000000 496075.688000 0.143000 1
153728.313000 496076.063000 -0.054000 1
153728.391000 496075.719000 0.040000 1
153728.891000 496075.375000 0.281000 1
153728.766000 496075.844000 -0.587000 1
153729.266000 496076.844000 -0.901000 1
153728.578000 496076.594000 -0.313000 1
153728.984000 496076.406000 -0.944000 1
153729.688000 496075.188000 -0.563000 1
153729.375000 496076.406000 -1.137000 1
153729.938000 496075.719000 -0.286000 1
153729.609000 496075.500000 -0.789000 1
153730.125000 496076.438000 -1.698000 1
153730.859000 496076.781000 -1.137000 1
153730.500000 496076.656000 -1.482000 1
153730.188000 496076.188000 -1.335000 1
153730.969000 496076.406000 -1.147000 1
153730.766000 496075.688000 -1.179000 1
153730.344000 496075.594000 -1.073000 1
153730.094000 496075.125000 -1.127000 1
153731.359000 496074.844000 -1.716000 1
153731.188000 496074.000000 -2.170000 1
153732.016000 496074.031000 -1.936000 1
153731.891000 496074.500000 -2.679000 1
153732.250000 496074.375000 -2.710000 1
153731.938000 496074.281000 -2.363000 1
