156775.609000 497575.813000 0.987000 1
156775.125000 497576.406000 1.318000 1
156775.531000 497576.156000 1.352000 1
156774.813000 497575.969000 0.706000 1
156774.109000 497575.594000 0.339000 1
156774.766000 497575.938000 0.724000 1
156775.422000 497575.125000 1.123000 1
156775.188000 497576.094000 0.971000 1
156775.344000 497575.094000 1.161000 1
156774.734000 497575.031000 1.599000 1
156775.438000 497575.406000 1.301000 1
156775.281000 497575.719000 1.223000 1
156775.141000 497575.781000 1.224000 1
156774.984000 497575.281000 1.341000 1
156775.047000 497575.469000 1.429000 1
156774.422000 497576.313000 1.658000 1
156774.000000 497574.719000 1.270000 1
156774.500000 497574.969000 1.147000 1
156774.563000 497575.719000 0.812000 1
156774.672000 497575.563000 1.673000 1
156774.656000 497575.344000 1.491000 1
156774.281000 497574.875000 1.360000 1
156774.109000 497574.813000 1.379000 1
156774.594000 497575.281000 1.555000 1
156774.203000 497575.250000 0.703000 1
156774.203000 497575.125000 1.389000 1
156773.922000 497575.063000 1.356000 1
156774.281000 497575.469000 1.319000 1
156773.844000 497575.219000 1.376000 1
156774.141000 497575.531000 1.349000 1
156773.844000 497575.406000 1.233000 1
156774.063000 497575.813000 1.342000 1
156774.078000 497576.156000 1.523000 1
156774.000000 497575.844000 1.344000 1
156773.984000 497576.156000 1.477000 1
156773.766000 497575.688000 1.319000 1
156773.516000 497575.750000 1.339000 1
156773.688000 497576.063000 1.242000 1
156773.594000 497576.031000 1.345000 1
156773.313000 497575.906000 0.953000 1
156773.172000 497575.875000 1.135000 1
156773.250000 497576.219000 1.197000 1
156772.953000 497576.000000 1.408000 1
156772.891000 497576.281000 1.623000 1
156772.578000 497576.625000 1.691000 1
156772.734000 497576.938000 1.760000 1
156772.656000 497576.969000 1.811000 1
156772.203000 497576.969000 1.361000 1
156772.406000 497577.500000 1.165000 1
156772.063000 497577.781000 1.528000 1
156772.125000 497577.313000 1.301000 1
156772.047000 497577.625000 1.085000 1
156771.906000 497577.219000 1.248000 1
156771.984000 497577.500000 1.355000 1
156771.797000 497577.375000 1.220000 1
156771.734000 497577.688000 1.133000 1
156771.719000 497577.875000 1.099000 1
156771.234000 497577.656000 0.788000 1
156771.266000 497577.813000 0.761000 1
156770.938000 497578.219000 0.890000 1
156771.328000 497577.969000 0.900000 1
156771.969000 497577.938000 1.133000 1
156771.656000 497578.000000 0.873000 1
156772.094000 497579.594000 0.725000 1
156772.672000 497580.281000 0.451000 1
156773.359000 497579.625000 0.721000 1
156774.078000 497579.125000 1.185000 1
156774.844000 497579.094000 0.788000 1
156774.453000 497579.344000 0.241000 1
156773.938000 497578.813000 -0.235000 1
156773.109000 497578.438000 -0.107000 1
156772.594000 497578.250000 -0.418000 1
156772.016000 497577.656000 -0.930000 1
156772.234000 497576.844000 -0.965000 1
156772.859000 497576.156000 -1.009000 1
156773.719000 497575.875000 -0.801000 1
156773.938000 497576.375000 -1.397000 1
156774.781000 497576.125000 -1.224000 1
156774.594000 497576.688000 -1.743000 1
156774.422000 497576.281000 -2.422000 1
156774.750000 497575.969000 -3.302000 1
156774.625000 497576.813000 -3.383000 1
156774.438000 497577.563000 -2.766000 1
156775.266000 497577.906000 -3.162000 1
156775.406000 497578.469000 -2.612000 1
156775.016000 497578.313000 -1.981000 1
156775.016000 497578.281000 -2.246000 1
156775.797000 497578.344000 -2.792000 1
156776.484000 497578.094000 -3.415000 1
156776.984000 497578.719000 -3.330000 1
156777.266000 497578.281000 -3.411000 1
156776.656000 497578.750000 -3.388000 1
156776.328000 497577.656000 -3.330000 1
156776.813000 497578.063000 -3.397000 1
156776.563000 497578.406000 -3.368000 1
156776.484000 497578.375000 -3.317000 1
156775.844000 497578.125000 -3.057000 1
156775.719000 497578.063000 -3.107000 1
156775.484000 497578.188000 -3.095000 1
156775.344000 497578.188000 -3.192000 1
156773.563000 497577.406000 -2.360000 1
156773.516000 497578.094000 -3.064000 1
156772.563000 497578.125000 -3.291000 1
156771.891000 497578.250000 -3.000000 1
156771.422000 497578.938000 -2.751000 1
156770.875000 497578.125000 -2.759000 1
156770.859000 497578.188000 -3.471000 1
156770.938000 497578.219000 -3.399000 1
156770.922000 497578.156000 -2.655000 1
156771.188000 497579.188000 -3.502000 1
156770.234000 497579.063000 -3.351000 1
156769.906000 497579.000000 -3.384000 1
156769.047000 497578.594000 -3.319000 1
156768.156000 497578.344000 -3.350000 1
156768.469000 497579.281000 -3.236000 1
156768.891000 497579.469000 -3.207000 1
156768.641000 497579.375000 -3.202000 1
156768.656000 497578.531000 -3.280000 1
156769.250000 497578.531000 -3.384000 1
156769.125000 497578.906000 -3.321000 1
156769.172000 497578.844000 -3.355000 1
156770.422000 497579.281000 -3.350000 1
156770.797000 497578.469000 -2.487000 1
156770.703000 497578.813000 -3.069000 1
156771.656000 497579.281000 -3.411000 1
156771.016000 497578.813000 -3.401000 1
156771.031000 497578.781000 -3.158000 1
156771.578000 497578.313000 -3.035000 1
156772.766000 497578.156000 -3.452000 1
156773.047000 497578.688000 -3.335000 1
156773.094000 497578.656000 -3.391000 1
156774.000000 497579.063000 -3.409000 1
156774.750000 497579.375000 -3.062000 1
156773.813000 497579.844000 -3.318000 1
156773.906000 497579.813000 -3.443000 1
156773.656000 497579.563000 -3.393000 1
156774.422000 497579.281000 -3.292000 1
156774.063000 497579.156000 -3.302000 1
156773.891000 497578.563000 -2.791000 1
156772.922000 497578.000000 -3.239000 1
156773.828000 497578.406000 -2.871000 1
156773.141000 497578.313000 -2.945000 1
156773.391000 497578.219000 -3.057000 1
156773.313000 497577.906000 -3.153000 1
156772.875000 497577.719000 -1.756000 1
156773.063000 497578.500000 -1.347000 1
156773.250000 497579.250000 -0.984000 1
156772.438000 497579.219000 -0.685000 1
156772.172000 497579.625000 -0.577000 1
156772.500000 497579.281000 -0.822000 1
156772.875000 497579.438000 -0.841000 1
156772.859000 497579.250000 -1.031000 1
156773.797000 497578.250000 -1.152000 1
156773.703000 497577.313000 -0.964000 1
156773.344000 497577.438000 -0.082000 1
156773.172000 497577.375000 -0.116000 1
156773.531000 497577.281000 -0.452000 1
156773.969000 497577.469000 -0.670000 1
156774.063000 497577.813000 -1.477000 1
156774.000000 497578.094000 -1.325000 1
156773.016000 497578.813000 -1.255000 1
156773.172000 497578.188000 -1.525000 1
156772.969000 497578.188000 -1.556000 1
156772.891000 497577.875000 -1.549000 1
156773.453000 497577.000000 -3.183000 1
156773.594000 497576.094000 -3.360000 1
156773.094000 497575.594000 -3.387000 1
156773.250000 497576.219000 -3.316000 1
156773.219000 497576.250000 -3.338000 1
156773.672000 497576.406000 -3.166000 1
156773.594000 497576.406000 -3.279000 1
156773.141000 497576.594000 -3.442000 1
156773.344000 497576.563000 -3.230000 1
156773.516000 497576.719000 -3.282000 1
156773.422000 497576.875000 -3.214000 1
156773.375000 497577.344000 -3.171000 1
156773.984000 497577.563000 -1.824000 1
156773.484000 497577.125000 -2.859000 1
156773.219000 497577.531000 -2.171000 1
156773.313000 497577.625000 -2.146000 1
156774.953000 497578.063000 -3.363000 1
156775.141000 497577.781000 -3.236000 1
156774.672000 497578.281000 -2.358000 1
156774.875000 497577.781000 -3.306000 1
156774.734000 497577.969000 -2.280000 1
156773.906000 497577.281000 -2.596000 1
156774.500000 497577.813000 -2.538000 1
156774.109000 497577.594000 -2.776000 1
156773.750000 497577.125000 -3.116000 1
156774.203000 497577.250000 -2.674000 1
156773.844000 497577.031000 -3.228000 1
156774.797000 497577.469000 -3.338000 1
156774.875000 497577.406000 -3.315000 1
156774.344000 497577.188000 -3.343000 1
156774.266000 497576.969000 -3.227000 1
156774.016000 497575.906000 -3.426000 1
156774.641000 497575.406000 -3.465000 1
156775.188000 497576.094000 -3.495000 1
156774.484000 497576.063000 -3.471000 1
156774.828000 497575.969000 -3.315000 1
156774.172000 497576.563000 -3.322000 1
156774.969000 497577.000000 -2.760000 1
156773.969000 497576.188000 -3.253000 1
156774.250000 497576.844000 -3.141000 1
156774.078000 497576.188000 -3.016000 1
156773.906000 497576.469000 -2.695000 1
156774.516000 497576.375000 -1.921000 1
156773.844000 497576.750000 -2.000000 1
156773.547000 497576.594000 -1.748000 1
156773.734000 497576.625000 -1.698000 1
156773.547000 497575.906000 -0.709000 1
156773.641000 497576.219000 -0.995000 1
156773.047000 497575.406000 -1.073000 1
156772.672000 497575.438000 -0.152000 1
156772.016000 497576.000000 -0.276000 1
156771.172000 497575.781000 -0.707000 1
156771.203000 497575.031000 -1.086000 1
156771.266000 497574.719000 -1.407000 1
156771.875000 497574.000000 -1.295000 1
156772.547000 497573.531000 -1.615000 1
156772.344000 497573.250000 -1.969000 1
156772.234000 497572.313000 -2.194000 1
156772.906000 497571.688000 -1.816000 1
156772.578000 497570.938000 -1.248000 1
156772.797000 497571.281000 -0.339000 1
156773.234000 497571.438000 0.523000 1
156773.813000 497570.750000 0.113000 1
156774.594000 497570.844000 0.114000 1
156774.281000 497571.781000 0.205000 1
156774.063000 497571.719000 0.015000 1
156775.094000 497571.438000 0.633000 1
156775.891000 497571.469000 0.067000 1
156776.500000 497572.063000 -0.352000 1
156777.078000 497571.500000 0.169000 1
156777.203000 497572.438000 0.392000 1
156776.438000 497572.344000 0.629000 1
156776.984000 497572.750000 0.351000 1
156777.297000 497572.344000 0.385000 1
156777.000000 497571.813000 0.207000 1
156776.844000 497572.469000 0.221000 1
156776.906000 497572.469000 0.128000 1
156776.531000 497572.563000 -0.401000 1
156775.719000 497570.938000 -0.416000 1
156775.125000 497571.531000 -0.797000 1
156774.953000 497570.875000 -1.212000 1
156774.469000 497571.031000 -2.016000 1
156774.031000 497571.594000 -2.524000 1
156774.250000 497570.906000 -3.215000 1
156773.406000 497570.813000 -2.728000 1
156773.219000 497571.406000 -3.319000 1
156773.344000 497572.156000 -3.494000 1
156772.594000 497572.250000 -3.387000 1
156773.109000 497572.438000 -3.449000 1
156772.703000 497571.719000 -3.135000 1
156772.938000 497571.781000 -3.412000 1
156773.297000 497571.719000 -3.425000 1
156773.125000 497571.063000 -3.379000 1
156774.734000 497571.406000 -3.296000 1
156774.875000 497572.375000 -3.271000 1
156775.391000 497572.594000 -2.451000 1
156774.906000 497573.438000 -2.661000 1
156774.281000 497573.531000 -3.374000 1
156774.422000 497574.313000 -3.363000 1
156774.141000 497574.125000 -3.294000 1
156774.078000 497573.375000 -3.224000 1
156773.984000 497573.000000 -2.572000 1
156774.031000 497572.875000 -1.588000 1
156774.250000 497573.688000 -1.522000 1
156774.453000 497574.156000 -1.431000 1
156773.766000 497573.469000 -1.289000 1
156773.875000 497573.500000 -1.313000 1
156773.969000 497572.906000 -1.600000 1
156773.891000 497572.656000 -1.878000 1
156774.094000 497572.594000 -2.190000 1
156773.734000 497572.719000 -2.365000 1
156775.656000 497573.625000 -3.171000 1
156776.547000 497573.688000 -3.420000 1
156777.125000 497573.344000 -3.397000 1
156777.844000 497572.875000 -3.371000 1
156778.297000 497572.531000 -3.392000 1
156778.172000 497572.688000 -3.402000 1
156777.438000 497572.906000 -2.831000 1
156776.578000 497572.719000 -2.532000 1
156777.703000 497573.250000 -3.305000 1
156777.531000 497573.250000 -3.395000 1
156777.406000 497573.156000 -3.221000 1
156776.984000 497573.375000 -3.304000 1
156776.750000 497573.406000 -3.074000 1
156776.625000 497573.344000 -3.293000 1
156776.438000 497573.688000 -3.268000 1
156776.125000 497573.594000 -3.212000 1
156775.813000 497573.500000 -3.250000 1
156774.953000 497574.094000 -3.285000 1
156774.500000 497573.969000 -3.229000 1
156775.016000 497573.813000 -3.287000 1
156775.359000 497573.688000 -3.161000 1
156774.625000 497573.875000 -2.912000 1
156774.578000 497573.656000 -2.909000 1
156774.547000 497573.563000 -2.783000 1
156774.984000 497571.906000 -1.875000 1
156774.875000 497571.906000 -1.728000 1
156775.109000 497573.406000 -2.404000 1
156775.438000 497573.375000 -2.643000 1
156775.500000 497571.813000 -2.567000 1
156775.828000 497571.750000 -3.409000 1
156775.891000 497571.469000 -3.439000 1
156774.813000 497573.094000 -2.300000 1
156774.750000 497572.938000 -2.392000 1
156775.234000 497573.281000 -2.345000 1
156776.047000 497572.469000 -2.384000 1
156775.969000 497572.813000 -2.558000 1
156775.531000 497572.969000 -2.081000 1
156775.188000 497573.063000 -2.606000 1
156775.844000 497572.781000 -2.315000 1
156774.375000 497572.875000 -2.590000 1
156775.141000 497572.969000 -2.555000 1
156775.344000 497572.438000 -2.499000 1
156775.266000 497572.750000 -2.576000 1
156775.609000 497571.906000 -3.256000 1
156774.297000 497572.594000 -2.704000 1
156774.438000 497572.844000 -2.819000 1
156774.734000 497573.000000 -3.265000 1
156775.406000 497572.156000 -3.143000 1
156774.688000 497572.563000 -3.086000 1
156775.234000 497572.031000 -3.170000 1
156775.359000 497570.969000 -3.461000 1
156774.969000 497572.031000 -3.414000 1
156775.031000 497571.719000 -3.473000 1
156774.813000 497571.281000 -3.301000 1
156773.422000 497571.813000 -3.259000 1
156774.609000 497572.156000 -2.017000 1
156773.875000 497570.969000 -3.070000 1
156774.156000 497572.313000 -2.363000 1
156773.500000 497571.500000 -3.033000 1
156773.500000 497571.125000 -2.650000 1
156774.375000 497571.406000 -3.063000 1
156774.203000 497572.219000 -2.606000 1
156773.578000 497571.188000 -2.717000 1
156773.578000 497571.469000 -2.885000 1
156774.313000 497571.688000 -2.938000 1
156773.656000 497571.750000 -2.779000 1
156774.234000 497572.000000 -2.648000 1
156774.125000 497571.906000 -2.673000 1
156773.953000 497571.781000 -2.772000 1
156775.125000 497571.344000 -2.481000 1
156774.688000 497571.813000 -2.137000 1
156774.031000 497571.469000 -2.488000 1
156773.953000 497571.250000 -2.237000 1
156774.109000 497571.125000 -2.130000 1
156774.328000 497571.188000 -2.045000 1
156774.844000 497571.188000 -2.091000 1
156774.625000 497570.969000 -1.787000 1
156774.938000 497570.813000 -1.491000 1
156775.313000 497570.750000 -0.706000 1
156775.531000 497571.656000 -0.500000 1
156775.563000 497571.688000 -0.460000 1
156775.688000 497570.969000 -0.230000 1
156775.969000 497571.188000 0.108000 1
156775.891000 497571.563000 0.086000 1
156775.797000 497571.250000 0.049000 1
156775.828000 497571.750000 0.763000 1
156775.484000 497571.844000 1.073000 1
156775.625000 497571.281000 0.229000 1
156775.563000 497571.531000 1.028000 1
156775.547000 497571.594000 0.908000 1
156775.109000 497571.438000 0.546000 1
156775.031000 497571.188000 -0.540000 1
156775.391000 497571.000000 0.308000 1
156774.859000 497571.094000 -0.637000 1
156774.453000 497571.625000 0.108000 1
156775.188000 497571.125000 0.530000 1
156774.750000 497571.438000 0.380000 1
156774.797000 497571.344000 0.297000 1
156774.000000 497571.406000 -0.171000 1
156774.500000 497570.875000 -0.052000 1
156774.078000 497571.281000 -0.079000 1
156773.906000 497571.094000 -0.091000 1
156772.375000 497571.781000 0.501000 1
156772.703000 497572.656000 0.247000 1
156771.922000 497572.563000 -0.287000 1
156771.266000 497573.156000 -0.702000 1
156770.797000 497572.938000 -1.487000 1
156770.719000 497572.344000 -2.205000 1
156770.328000 497572.281000 -2.212000 1
156770.563000 497572.969000 -2.296000 1
156770.719000 497572.656000 -2.071000 1
156770.375000 497572.719000 -1.719000 1
156770.641000 497572.625000 -1.881000 1
156770.969000 497572.813000 -1.284000 1
156770.813000 497571.938000 -1.005000 1
156771.344000 497571.219000 -1.287000 1
156771.734000 497571.344000 -0.440000 1
156771.359000 497571.125000 -0.119000 1
156771.859000 497570.875000 -0.422000 1
156771.422000 497570.875000 -0.923000 1
156771.516000 497571.000000 -0.930000 1
156771.141000 497571.156000 -1.386000 1
156771.219000 497571.781000 -0.219000 1
156770.906000 497571.563000 -0.330000 1
156770.969000 497571.250000 -0.853000 1
156770.781000 497571.281000 -0.745000 1
156770.859000 497571.563000 -0.498000 1
156770.531000 497571.938000 -0.763000 1
156770.734000 497572.250000 -0.626000 1
156770.625000 497572.281000 -0.706000 1
156770.953000 497573.563000 -1.154000 1
156770.891000 497573.094000 -0.337000 1
156771.266000 497573.281000 -0.630000 1
156771.969000 497571.813000 -0.882000 1
156771.594000 497573.375000 -0.562000 1
156771.984000 497573.406000 0.043000 1
156772.156000 497574.031000 0.593000 1
156771.578000 497574.313000 0.605000 1
156772.234000 497573.781000 0.446000 1
156772.234000 497573.719000 0.380000 1
156771.063000 497572.438000 -0.413000 1
156771.109000 497572.500000 -0.255000 1
156771.359000 497572.000000 -0.415000 1
156771.188000 497572.813000 -0.343000 1
156772.266000 497572.219000 -0.876000 1
156771.688000 497573.250000 -0.191000 1
156771.344000 497572.938000 -0.451000 1
156771.750000 497571.938000 -0.471000 1
156771.438000 497572.594000 -0.200000 1
156771.516000 497572.594000 -0.125000 1
156773.141000 497572.563000 -0.534000 1
156772.078000 497573.188000 0.027000 1
156772.063000 497573.125000 0.009000 1
156772.000000 497572.844000 -0.062000 1
156772.141000 497572.781000 0.051000 1
156772.375000 497573.094000 0.361000 1
156772.438000 497573.031000 0.306000 1
156772.359000 497572.750000 0.022000 1
156772.531000 497572.438000 0.102000 1
156772.219000 497572.438000 0.138000 1
156772.281000 497572.438000 0.185000 1
156772.531000 497571.969000 0.530000 1
156773.016000 497572.281000 0.651000 1
156774.000000 497571.563000 0.151000 1
156773.406000 497572.094000 0.085000 1
156773.031000 497572.125000 0.793000 1
156773.094000 497571.969000 0.622000 1
156773.406000 497571.875000 0.226000 1
156773.609000 497571.531000 0.196000 1
156772.938000 497571.781000 0.644000 1
156773.234000 497571.313000 0.636000 1
156772.703000 497571.750000 0.515000 1
156772.609000 497572.125000 0.046000 1
156773.156000 497571.125000 0.488000 1
156773.313000 497571.781000 0.190000 1
156773.625000 497571.000000 -0.451000 1
156772.031000 497571.500000 -0.002000 1
156773.484000 497571.563000 0.089000 1
156773.375000 497570.719000 -0.547000 1
156772.203000 497570.750000 -0.102000 1
156772.453000 497571.656000 0.295000 1
156773.547000 497571.281000 -0.063000 1
156772.203000 497570.813000 -0.167000 1
156773.313000 497571.031000 0.150000 1
156773.547000 497571.281000 -0.352000 1
156772.375000 497571.344000 0.224000 1
156772.453000 497571.500000 0.200000 1
156772.281000 497571.063000 -0.044000 1
156773.078000 497570.813000 -0.055000 1
156772.922000 497570.844000 -0.056000 1
156772.516000 497571.188000 0.008000 1
156772.828000 497571.188000 -0.256000 1
156771.797000 497571.063000 -0.680000 1
156772.313000 497571.156000 -1.305000 1
156773.094000 497570.938000 -1.560000 1
156773.266000 497571.188000 -1.855000 1
156773.188000 497571.281000 -1.947000 1
156773.266000 497571.594000 -1.695000 1
156773.125000 497571.813000 -1.870000 1
156772.344000 497571.906000 -1.378000 1
156772.656000 497571.906000 -1.503000 1
156772.563000 497572.125000 -1.378000 1
156772.422000 497571.563000 -2.374000 1
156772.625000 497573.813000 -1.198000 1
156772.266000 497573.563000 -1.621000 1
156771.953000 497573.531000 -1.640000 1
156772.203000 497573.625000 -1.561000 1
156771.500000 497573.750000 -1.202000 1
156771.797000 497573.688000 -1.616000 1
156772.266000 497573.906000 -1.375000 1
156772.203000 497573.844000 -1.449000 1
156771.906000 497573.781000 -1.107000 1
156771.438000 497573.813000 -1.302000 1
156770.938000 497574.875000 -1.155000 1
156771.281000 497574.813000 -1.172000 1
156771.344000 497575.094000 -0.851000 1
156771.016000 497575.188000 -0.969000 1
156771.359000 497576.031000 -0.868000 1
156773.281000 497576.313000 -0.394000 1
156772.891000 497576.250000 -1.725000 1
156772.766000 497575.781000 -0.518000 1
156773.125000 497575.719000 -0.695000 1
156772.469000 497575.844000 -0.897000 1
156773.266000 497576.063000 -1.014000 1
156772.984000 497575.844000 -0.832000 1
156773.219000 497576.063000 -1.081000 1
156772.453000 497576.188000 -1.031000 1
156772.281000 497577.031000 -1.066000 1
156772.813000 497577.969000 -1.221000 1
156772.359000 497578.938000 -0.899000 1
156772.531000 497577.813000 -0.967000 1
156771.938000 497578.031000 -0.353000 1
156772.438000 497577.625000 -0.633000 1
156772.516000 497577.938000 -0.949000 1
156772.438000 497578.156000 -0.990000 1
156772.188000 497578.313000 -0.763000 1
156772.953000 497578.094000 -0.495000 1
156772.750000 497578.281000 -0.374000 1
156773.953000 497578.281000 0.469000 1
156774.719000 497578.094000 0.308000 1
156773.859000 497578.719000 -0.860000 1
156773.781000 497579.031000 -0.774000 1
156774.203000 497578.375000 -0.097000 1
156774.016000 497579.125000 -0.219000 1
156774.047000 497579.219000 -0.162000 1
156774.094000 497579.438000 -0.068000 1
156774.406000 497579.406000 -0.065000 1
156774.219000 497578.500000 0.930000 1
156774.141000 497578.844000 0.713000 1
156774.500000 497578.969000 1.207000 1
156774.344000 497578.906000 1.263000 1
156774.234000 497579.969000 0.996000 1
156774.156000 497579.656000 1.280000 1
156774.000000 497579.031000 1.020000 1
156774.078000 497579.344000 1.167000 1
156773.266000 497579.156000 0.107000 1
156774.000000 497579.469000 1.063000 1
156773.734000 497579.219000 1.023000 1
156773.641000 497579.156000 0.977000 1
156773.797000 497579.781000 0.937000 1
156773.734000 497579.500000 1.013000 1
156773.594000 497579.844000 0.858000 1
156773.656000 497579.563000 0.703000 1
156773.422000 497579.906000 0.884000 1
156773.125000 497579.781000 0.591000 1
156773.078000 497580.063000 0.759000 1
156773.047000 497580.094000 0.644000 1
156772.406000 497580.500000 0.391000 1
156772.656000 497580.125000 0.655000 1
156772.766000 497579.938000 0.765000 1
156772.313000 497580.156000 0.735000 1
156772.297000 497580.125000 0.633000 1
156772.578000 497579.750000 0.839000 1
156772.391000 497579.781000 0.729000 1
156772.234000 497579.844000 0.698000 1
156772.156000 497579.531000 0.792000 1
156771.813000 497578.188000 1.306000 1
156771.891000 497578.250000 1.413000 1
156771.406000 497578.313000 0.930000 1
156771.578000 497578.344000 1.049000 1
156771.500000 497578.625000 1.017000 1
156771.563000 497578.906000 1.200000 1
156771.813000 497578.563000 1.033000 1
156772.844000 497579.625000 0.885000 1
156772.453000 497579.500000 0.765000 1
156771.891000 497578.531000 1.300000 1
156772.172000 497579.281000 0.781000 1
156773.203000 497579.438000 1.036000 1
156772.156000 497578.156000 1.175000 1
156772.063000 497579.188000 1.023000 1
156771.969000 497578.844000 1.221000 1
156773.266000 497579.250000 1.187000 1
156772.484000 497579.406000 1.290000 1
156772.906000 497579.438000 1.144000 1
156773.281000 497579.094000 1.019000 1
156772.234000 497578.469000 1.421000 1
156772.922000 497579.250000 1.251000 1
156772.266000 497578.906000 1.373000 1
156772.391000 497579.063000 1.429000 1
156772.344000 497578.594000 1.435000 1
156772.313000 497578.750000 1.427000 1
156772.547000 497579.094000 1.430000 1
156772.813000 497579.094000 1.205000 1
156773.000000 497578.938000 1.152000 1
156772.625000 497578.781000 1.173000 1
156772.406000 497578.281000 1.236000 1
156773.547000 497578.813000 1.539000 1
156772.641000 497577.313000 1.514000 1
156772.563000 497577.625000 1.097000 1
156772.469000 497577.750000 1.288000 1
156772.766000 497577.313000 1.603000 1
156773.750000 497578.094000 0.929000 1
156773.375000 497578.719000 1.511000 1
156772.484000 497577.938000 1.525000 1
156772.641000 497578.406000 1.532000 1
156772.703000 497578.438000 1.486000 1
156772.563000 497578.094000 1.436000 1
156773.094000 497578.594000 1.608000 1
156773.078000 497578.594000 1.448000 1
156773.469000 497578.500000 1.567000 1
156772.844000 497577.656000 1.343000 1
156773.453000 497578.406000 1.400000 1
156772.781000 497578.125000 1.506000 1
156772.859000 497577.781000 1.485000 1
156773.000000 497578.281000 1.477000 1
156773.141000 497578.313000 1.540000 1
156772.922000 497577.969000 1.387000 1
156773.391000 497578.188000 1.414000 1
156773.531000 497578.063000 1.585000 1
156773.156000 497576.563000 0.856000 1
156774.625000 497576.750000 1.319000 1
156772.938000 497577.438000 1.484000 1
156773.313000 497577.844000 1.591000 1
156774.344000 497576.625000 1.090000 1
156773.609000 497576.375000 1.088000 1
156774.156000 497576.469000 1.656000 1
156773.000000 497577.188000 1.153000 1
156773.047000 497576.875000 1.622000 1
156773.688000 497576.375000 1.387000 1
156773.141000 497577.219000 1.762000 1
156773.219000 497577.531000 1.523000 1
156773.906000 497576.469000 1.488000 1
156773.313000 497577.625000 1.540000 1
156774.250000 497576.813000 1.320000 1
156773.406000 497576.781000 1.629000 1
156773.469000 497576.938000 1.681000 1
156773.375000 497577.313000 1.525000 1
156773.766000 497576.688000 1.346000 1
156773.828000 497576.781000 1.189000 1
156773.500000 497577.125000 1.468000 1
156773.844000 497576.969000 1.274000 1
156773.906000 497578.500000 1.532000 1
156774.281000 497576.938000 1.199000 1
156773.609000 497577.750000 1.368000 1
156773.828000 497578.375000 1.606000 1
156774.969000 497577.000000 1.545000 1
156773.688000 497577.438000 1.663000 1
156773.734000 497578.031000 1.870000 1
156773.656000 497577.719000 1.454000 1
156775.078000 497577.188000 1.650000 1
156773.922000 497577.313000 1.514000 1
156774.094000 497577.969000 1.044000 1
156774.703000 497577.063000 1.688000 1
156774.344000 497577.156000 1.241000 1
156773.984000 497578.188000 1.810000 1
156774.000000 497577.594000 1.916000 1
156774.156000 497578.219000 1.760000 1
156774.203000 497577.281000 1.393000 1
156774.531000 497577.219000 1.600000 1
156774.781000 497577.375000 1.668000 1
156774.141000 497577.531000 1.784000 1
156774.313000 497578.156000 1.522000 1
156774.422000 497577.469000 1.624000 1
156774.375000 497577.844000 1.366000 1
156774.453000 497577.531000 1.589000 1
156774.891000 497577.344000 1.596000 1
156774.578000 497578.656000 1.353000 1
156775.234000 497577.375000 1.729000 1
156775.172000 497577.500000 1.829000 1
156774.766000 497578.750000 1.169000 1
156774.859000 497577.656000 1.787000 1
156774.578000 497578.094000 1.642000 1
156774.813000 497577.656000 1.614000 1
156775.156000 497577.688000 1.876000 1
156774.750000 497577.969000 1.573000 1
156775.250000 497577.813000 1.797000 1
156774.938000 497577.969000 1.538000 1
156775.578000 497577.813000 1.576000 1
156775.078000 497578.063000 1.412000 1
156775.219000 497579.031000 0.575000 1
156775.063000 497578.406000 0.523000 1
156775.141000 497578.719000 0.734000 1
156775.328000 497578.844000 0.605000 1
156775.516000 497578.844000 0.542000 1
156775.391000 497578.531000 0.623000 1
156775.688000 497578.813000 0.490000 1
156775.828000 497578.438000 0.362000 1
156775.469000 497578.219000 0.481000 1
156775.719000 497577.188000 1.190000 1
156775.563000 497577.406000 1.168000 1
156776.188000 497578.281000 0.801000 1
156775.641000 497577.719000 1.125000 1
156775.641000 497577.531000 0.962000 1
156775.938000 497577.781000 1.131000 1
156776.094000 497577.938000 1.034000 1
156775.797000 497576.875000 0.642000 1
156775.984000 497577.531000 0.610000 1
156776.328000 497577.656000 0.659000 1
156775.938000 497577.344000 0.620000 1
156776.328000 497577.500000 0.751000 1
156776.063000 497577.188000 0.731000 1
156776.156000 497576.844000 0.665000 1
156776.156000 497576.844000 0.529000 1
156776.406000 497577.344000 0.574000 1
156776.234000 497577.156000 0.573000 1
156776.406000 497576.469000 0.794000 1
156776.078000 497576.563000 0.516000 1
156776.234000 497575.813000 0.701000 1
156776.000000 497576.219000 0.563000 1
156777.531000 497576.375000 0.238000 1
156776.016000 497575.938000 0.546000 1
156777.297000 497576.781000 -0.021000 1
156776.594000 497576.500000 -0.814000 1
156775.922000 497576.281000 0.233000 1
156776.219000 497576.563000 0.445000 1
156777.203000 497576.625000 0.329000 1
156776.297000 497576.250000 0.614000 1
156776.266000 497576.344000 -0.686000 1
156777.375000 497576.469000 0.079000 1
156777.438000 497576.156000 -0.266000 1
156776.500000 497576.844000 0.001000 1
156776.844000 497576.813000 0.069000 1
156776.547000 497576.750000 -0.221000 1
156776.875000 497576.750000 -0.056000 1
156777.141000 497576.344000 -0.258000 1
156776.922000 497576.531000 0.120000 1
156776.797000 497576.438000 0.144000 1
156776.984000 497576.219000 -0.088000 1
156776.703000 497576.094000 0.025000 1
156777.453000 497576.063000 -0.351000 1
156777.047000 497576.031000 -0.091000 1
156776.625000 497575.781000 0.025000 1
156777.516000 497575.844000 -0.461000 1
156776.766000 497575.813000 -0.071000 1
156776.828000 497575.594000 -0.959000 1
156776.953000 497574.156000 -0.084000 1
156777.031000 497574.469000 -0.301000 1
156776.563000 497575.531000 -0.952000 1
156777.109000 497574.781000 -0.521000 1
156776.781000 497574.219000 -1.656000 1
156776.500000 497573.906000 -2.193000 1
156777.109000 497574.375000 -1.983000 1
156776.984000 497574.281000 -1.903000 1
156776.906000 497575.250000 -0.970000 1
156776.813000 497575.125000 -0.997000 1
156776.563000 497575.094000 -1.286000 1
156776.734000 497574.813000 -1.151000 1
156776.641000 497574.781000 -1.122000 1
156776.359000 497574.438000 -0.898000 1
156776.125000 497573.875000 -0.285000 1
156775.875000 497574.688000 -0.974000 1
156775.531000 497574.438000 -0.569000 1
156775.438000 497574.094000 -0.553000 1
156774.563000 497573.750000 -0.304000 1
156774.578000 497573.656000 -0.063000 1
156775.859000 497574.406000 -0.842000 1
156775.953000 497574.375000 -0.822000 1
156776.531000 497573.781000 -0.897000 1
156774.984000 497573.938000 -1.243000 1
156775.063000 497573.656000 -1.587000 1
156776.469000 497573.813000 -0.980000 1
156776.109000 497573.656000 -0.541000 1
156775.797000 497574.125000 -1.797000 1
156775.313000 497573.875000 -1.729000 1
156775.359000 497573.781000 -0.890000 1
156775.703000 497573.750000 -0.693000 1
156776.031000 497574.063000 -1.224000 1
156776.797000 497573.594000 -1.285000 1
156775.625000 497573.500000 -1.587000 1
156776.328000 497572.781000 -1.459000 1
156775.406000 497573.531000 -1.108000 1
156775.547000 497573.188000 -1.717000 1
156775.203000 497571.844000 -0.789000 1
156774.906000 497572.250000 -1.700000 1
156775.453000 497573.281000 -1.535000 1
156775.625000 497572.625000 -1.776000 1
156774.719000 497572.719000 -1.483000 1
156775.469000 497572.875000 -1.708000 1
156775.219000 497573.219000 -1.400000 1
156775.219000 497572.969000 -1.532000 1
156774.953000 497572.219000 -1.150000 1
156775.047000 497572.563000 -1.357000 1
156775.453000 497571.969000 -0.480000 1
156776.344000 497572.688000 -0.254000 1
156775.734000 497572.156000 0.037000 1
156776.203000 497572.781000 -0.079000 1
156775.719000 497572.313000 0.009000 1
156776.016000 497572.625000 -0.020000 1
156775.859000 497573.281000 -0.257000 1
156775.938000 497572.938000 -0.180000 1
156775.813000 497572.625000 -0.082000 1
156775.891000 497572.938000 -0.122000 1
156774.516000 497571.906000 0.593000 1
156774.656000 497571.969000 0.518000 1
156775.094000 497573.500000 0.431000 1
156775.438000 497572.750000 -0.191000 1
156775.391000 497572.250000 0.078000 1
156774.938000 497573.531000 0.356000 1
156774.641000 497573.406000 0.260000 1
156775.344000 497572.406000 0.336000 1
156775.328000 497572.500000 0.343000 1
156775.172000 497573.188000 0.400000 1
156774.859000 497573.219000 0.370000 1
156775.016000 497572.438000 0.539000 1
156775.094000 497572.719000 0.567000 1
156774.719000 497573.094000 0.143000 1
156774.875000 497572.406000 0.382000 1
156774.766000 497572.875000 0.314000 1
156773.938000 497571.844000 0.914000 1
156774.609000 497572.250000 1.048000 1
156774.594000 497572.250000 1.056000 1
156773.109000 497572.438000 0.896000 1
156774.688000 497572.563000 0.480000 1
156774.141000 497571.969000 0.782000 1
156774.516000 497572.563000 1.274000 1
156773.344000 497572.188000 0.693000 1
156774.484000 497573.281000 0.721000 1
156774.219000 497572.094000 0.565000 1
156774.406000 497573.000000 0.266000 1
156773.266000 497572.500000 0.875000 1
156774.297000 497572.594000 1.285000 1
156774.359000 497573.219000 0.681000 1
156774.422000 497572.906000 0.456000 1
156773.469000 497572.375000 0.757000 1
156773.859000 497572.188000 0.806000 1
156774.141000 497572.406000 0.572000 1
156773.797000 497572.469000 1.034000 1
156773.844000 497572.438000 0.880000 1
156774.078000 497572.688000 0.723000 1
156774.219000 497573.813000 0.603000 1
156773.547000 497572.656000 0.849000 1
156774.281000 497573.531000 0.396000 1
156774.172000 497573.719000 0.599000 1
156773.188000 497572.750000 0.899000 1
156773.703000 497572.813000 0.832000 1
156772.516000 497573.375000 0.339000 1
156774.016000 497573.094000 0.685000 1
156773.656000 497573.063000 -0.289000 1
156773.188000 497572.813000 0.825000 1
156772.859000 497573.250000 0.926000 1
156774.094000 497573.406000 0.506000 1
156773.984000 497573.063000 0.391000 1
156772.703000 497573.594000 0.216000 1
156772.781000 497573.250000 0.601000 1
156773.922000 497573.344000 0.645000 1
156773.625000 497573.156000 0.806000 1
156773.281000 497573.094000 0.773000 1
156773.109000 497573.188000 0.764000 1
156773.719000 497573.313000 0.691000 1
156773.844000 497573.625000 0.657000 1
156773.547000 497573.469000 0.480000 1
156773.797000 497573.594000 0.660000 1
156773.031000 497573.500000 0.369000 1
156772.594000 497573.688000 0.397000 1
156772.313000 497574.094000 0.512000 1
156773.875000 497573.875000 1.122000 1
156773.953000 497574.219000 1.101000 1
156772.953000 497573.594000 0.413000 1
156773.438000 497573.719000 0.419000 1
156772.625000 497573.875000 0.523000 1
156773.766000 497573.969000 0.914000 1
156773.484000 497573.750000 0.998000 1
156772.688000 497574.000000 0.573000 1
156772.953000 497573.813000 0.527000 1
156773.516000 497574.000000 0.993000 1
156773.016000 497573.844000 0.962000 1
156773.391000 497574.125000 0.670000 1
156772.875000 497574.125000 0.685000 1
156773.750000 497574.906000 1.116000 1
156772.766000 497574.313000 0.886000 1
156773.672000 497574.594000 1.177000 1
156773.391000 497575.563000 1.173000 1
156772.813000 497574.406000 0.835000 1
156773.031000 497575.688000 1.149000 1
156773.094000 497575.563000 1.047000 1
156773.625000 497574.563000 1.234000 1
156773.250000 497574.750000 0.809000 1
156773.094000 497575.406000 0.922000 1
156773.328000 497574.438000 1.052000 1
156773.547000 497574.906000 1.109000 1
156773.438000 497575.438000 1.339000 1
156773.188000 497574.500000 1.146000 1
156773.000000 497575.219000 1.375000 1
156771.234000 497574.625000 0.970000 1
156771.938000 497574.156000 0.937000 1
156772.734000 497574.719000 1.220000 1
156772.672000 497575.000000 1.707000 1
156772.391000 497574.375000 1.051000 1
156771.781000 497574.281000 1.128000 1
156772.094000 497574.313000 1.085000 1
156772.547000 497574.969000 1.626000 1
156772.469000 497574.656000 1.401000 1
156771.656000 497574.594000 1.094000 1
156772.016000 497574.469000 1.126000 1
156772.422000 497574.781000 1.352000 1
156771.719000 497574.563000 1.187000 1
156772.031000 497574.594000 1.200000 1
156771.641000 497574.906000 1.201000 1
156771.734000 497574.906000 1.107000 1
156772.234000 497576.813000 1.357000 1
156772.641000 497575.313000 1.603000 1
156772.344000 497575.125000 1.613000 1
156772.172000 497575.063000 1.534000 1
156772.813000 497575.969000 1.472000 1
156772.594000 497575.344000 1.523000 1
156772.719000 497575.625000 1.470000 1
156772.500000 497576.344000 1.579000 1
156772.516000 497575.656000 1.488000 1
156772.250000 497575.406000 1.487000 1
156772.344000 497576.344000 1.287000 1
156772.266000 497575.438000 1.218000 1
156772.406000 497576.000000 1.388000 1
156772.422000 497576.031000 1.287000 1
156772.328000 497575.688000 1.330000 1
156772.109000 497576.094000 1.343000 1
156772.188000 497575.781000 1.121000 1
156771.859000 497575.250000 1.041000 1
156771.313000 497574.938000 1.175000 1
156771.813000 497575.250000 1.086000 1
156771.234000 497574.875000 0.961000 1
156771.000000 497575.125000 0.172000 1
156771.141000 497575.250000 0.072000 1
156771.906000 497575.594000 1.005000 1
156771.563000 497575.219000 1.160000 1
156771.094000 497575.438000 0.089000 1
156771.406000 497575.281000 1.250000 1
156771.469000 497575.625000 0.396000 1
156771.484000 497575.625000 0.515000 1
156772.063000 497576.219000 1.128000 1
156772.156000 497576.531000 1.078000 1
156771.891000 497577.031000 1.191000 1
156771.719000 497575.906000 0.740000 1
156771.578000 497575.938000 0.757000 1
156771.813000 497576.844000 1.138000 1
156771.391000 497575.906000 0.598000 1
156771.953000 497576.719000 1.022000 1
156771.234000 497576.031000 0.579000 1
156771.469000 497576.938000 1.015000 1
156771.641000 497576.219000 0.790000 1
156771.734000 497576.563000 0.929000 1
156771.656000 497576.250000 0.717000 1
156771.500000 497576.813000 0.978000 1
156771.563000 497576.531000 0.759000 1
156771.297000 497576.313000 0.012000 1
156771.328000 497576.375000 0.186000 1
156771.328000 497577.531000 0.533000 1
156771.406000 497577.219000 0.559000 1
156771.172000 497577.406000 0.463000 1
156771.234000 497576.594000 0.179000 1
156771.016000 497576.813000 -0.148000 1
156771.156000 497576.906000 0.100000 1
156771.078000 497577.250000 0.004000 1
156771.000000 497577.563000 0.285000 1
156770.625000 497577.031000 -0.182000 1
156770.656000 497577.281000 -0.530000 1
156770.719000 497577.344000 -0.227000 1
156770.297000 497577.469000 -0.791000 1
156770.266000 497577.500000 -0.772000 1
156770.594000 497577.563000 -0.576000 1
156770.797000 497577.656000 -0.017000 1
156770.469000 497578.094000 -0.948000 1
156770.516000 497577.875000 -0.713000 1
156770.438000 497578.250000 -0.838000 1
156770.922000 497577.906000 -0.038000 1
156770.875000 497577.969000 -0.067000 1
156770.563000 497578.438000 -0.754000 1
156770.828000 497578.313000 -0.524000 1
156772.219000 497579.063000 -0.555000 1
156771.156000 497578.219000 -0.306000 1
156771.422000 497578.969000 0.929000 1
156771.109000 497578.469000 0.784000 1
156771.109000 497578.813000 1.020000 1
156771.031000 497578.531000 0.779000 1
156770.781000 497578.531000 0.660000 1
156770.609000 497578.625000 0.386000 1
156771.016000 497578.813000 0.440000 1
156770.703000 497578.844000 0.418000 1
156770.688000 497578.938000 0.420000 1
156771.656000 497579.250000 0.790000 1
156771.188000 497579.156000 0.760000 1
156771.656000 497579.281000 0.682000 1
156770.938000 497579.156000 0.299000 1
156770.781000 497579.281000 0.363000 1
156771.750000 497579.594000 0.612000 1
156771.328000 497579.344000 0.547000 1
156770.859000 497579.500000 0.225000 1
156771.578000 497579.563000 0.601000 1
156770.859000 497579.594000 0.234000 1
156771.516000 497579.844000 0.798000 1
156771.266000 497579.656000 0.416000 1
156771.344000 497579.781000 0.618000 1
156770.938000 497579.875000 0.563000 1
156772.094000 497580.969000 -0.242000 1
156772.141000 497580.813000 -0.120000 1
156772.203000 497580.531000 -0.091000 1
156772.016000 497580.625000 0.032000 1
156771.938000 497580.281000 0.119000 1
156771.922000 497580.313000 0.095000 1
156771.609000 497580.781000 0.151000 1
156771.859000 497580.594000 0.064000 1
156772.094000 497579.313000 -0.873000 1
156772.141000 497579.438000 -0.903000 1
156771.063000 497580.375000 -1.314000 1
156770.750000 497579.969000 -1.461000 1
156770.969000 497580.031000 -1.185000 1
156771.469000 497580.250000 -1.165000 1
156771.234000 497579.781000 -1.149000 1
156771.391000 497579.938000 -1.518000 1
156772.109000 497580.969000 -1.848000 1
156771.469000 497580.063000 -1.581000 1
156771.813000 497580.750000 -1.844000 1
156772.047000 497580.813000 -2.093000 1
156772.172000 497580.688000 -2.249000 1
156771.891000 497580.469000 -2.171000 1
156771.969000 497580.469000 -1.983000 1
156772.547000 497579.688000 -2.194000 1
156773.141000 497579.719000 -2.432000 1
156773.063000 497580.000000 -2.377000 1
156773.125000 497581.750000 -2.161000 1
156773.125000 497580.313000 -2.310000 1
156774.188000 497581.281000 -2.003000 1
156774.109000 497582.125000 -1.569000 1
156773.969000 497581.969000 -1.590000 1
156774.359000 497581.938000 -1.891000 1
156774.172000 497581.844000 -1.831000 1
156774.266000 497581.563000 -1.498000 1
156774.250000 497581.500000 -1.490000 1
156773.781000 497580.375000 -2.357000 1
156774.109000 497581.000000 -2.108000 1
156773.984000 497581.156000 -2.253000 1
156772.531000 497581.000000 -2.036000 1
156772.469000 497581.125000 -1.867000 1
156773.922000 497581.438000 -2.004000 1
156773.219000 497580.656000 -2.282000 1
156773.813000 497581.406000 -2.098000 1
156773.891000 497581.688000 -1.614000 1
156773.047000 497581.625000 -2.018000 1
156773.000000 497580.281000 -1.728000 1
156773.734000 497581.094000 -2.174000 1
156772.609000 497581.313000 -1.828000 1
156773.359000 497580.750000 -2.188000 1
156773.375000 497581.250000 -2.193000 1
156773.313000 497580.969000 -2.056000 1
156773.219000 497581.375000 -1.940000 1
156773.844000 497581.750000 -1.374000 1
156772.703000 497581.563000 -1.415000 1
156773.781000 497582.031000 -1.090000 1
156772.688000 497581.625000 -1.354000 1
156773.484000 497581.594000 -1.410000 1
156773.000000 497582.281000 -1.106000 1
156772.766000 497581.906000 -1.269000 1
156773.453000 497581.531000 -1.291000 1
156773.609000 497582.094000 -0.879000 1
156773.531000 497581.844000 -1.115000 1
156773.422000 497581.875000 -1.029000 1
156773.078000 497581.938000 -0.904000 1
156773.109000 497581.844000 -0.950000 1
156772.938000 497581.219000 -1.045000 1
156772.484000 497580.813000 0.137000 1
156772.500000 497581.000000 -0.178000 1
156772.578000 497581.188000 -0.144000 1
156772.578000 497580.656000 -0.002000 1
156772.875000 497580.844000 -0.710000 1
156772.859000 497580.875000 -0.674000 1
156772.953000 497580.469000 -0.019000 1
156773.172000 497580.438000 0.304000 1
156773.500000 497580.188000 0.740000 1
156773.406000 497580.625000 -0.357000 1
156773.516000 497580.250000 0.582000 1
156773.844000 497580.125000 0.577000 1
156773.609000 497580.594000 0.258000 1
156773.672000 497580.813000 0.173000 1
156773.688000 497580.906000 0.201000 1
156774.156000 497581.125000 0.129000 1
156774.031000 497580.969000 0.101000 1
156774.359000 497581.063000 -0.060000 1
156774.609000 497580.031000 0.867000 1
156774.109000 497580.656000 0.282000 1
156774.422000 497580.688000 0.646000 1
156774.438000 497580.719000 0.634000 1
156774.344000 497580.375000 0.467000 1
156774.516000 497580.375000 0.486000 1
156774.781000 497580.594000 0.326000 1
156774.750000 497579.438000 0.405000 1
156774.938000 497579.438000 0.513000 1
156775.609000 497580.656000 -0.204000 1
156775.250000 497579.156000 0.347000 1
156775.234000 497579.250000 -0.690000 1
156775.094000 497579.844000 0.371000 1
156775.563000 497580.406000 -0.295000 1
156775.016000 497579.750000 0.296000 1
156775.000000 497580.188000 -0.148000 1
156775.359000 497580.188000 -0.379000 1
156775.156000 497579.531000 0.050000 1
156775.703000 497579.563000 0.012000 1
156775.328000 497579.469000 -0.333000 1
156776.875000 497579.594000 -1.472000 1
156776.766000 497580.438000 -1.539000 1
156775.891000 497580.813000 -1.538000 1
156776.063000 497580.938000 -1.558000 1
156776.344000 497580.750000 -1.462000 1
156776.719000 497580.344000 -1.465000 1
156776.859000 497580.063000 -1.532000 1
156777.000000 497579.438000 -1.500000 1
156777.828000 497579.000000 -1.464000 1
156778.313000 497579.406000 -2.218000 1
156777.813000 497579.406000 -2.405000 1
156778.266000 497579.406000 -2.242000 1
156777.922000 497579.375000 -2.236000 1
156777.922000 497578.969000 -1.442000 1
156775.438000 497579.875000 -0.279000 1
156776.063000 497580.156000 -1.674000 1
156776.953000 497579.875000 -1.197000 1
156775.703000 497580.313000 -0.382000 1
156775.484000 497580.094000 -0.480000 1
156776.422000 497580.406000 -1.295000 1
156776.344000 497580.438000 -1.169000 1
156775.984000 497580.438000 -1.119000 1
156775.859000 497580.188000 -0.413000 1
156776.625000 497579.969000 -0.554000 1
156775.797000 497579.906000 -0.486000 1
156775.844000 497579.688000 -0.564000 1
156776.078000 497580.063000 -0.684000 1
156776.250000 497580.094000 -0.887000 1
156776.172000 497579.781000 -0.822000 1
156776.781000 497579.250000 -1.595000 1
156776.594000 497579.719000 -0.784000 1
156776.547000 497579.688000 -0.902000 1
156776.219000 497579.469000 -1.125000 1
156776.656000 497579.438000 -0.805000 1
156775.922000 497578.813000 -0.296000 1
156776.453000 497579.344000 -0.769000 1
156776.000000 497579.063000 -0.700000 1
156776.078000 497578.719000 -0.668000 1
156776.375000 497579.031000 -0.833000 1
156776.297000 497578.719000 -0.831000 1
156776.984000 497577.125000 -1.011000 1
156777.344000 497578.063000 -0.689000 1
156776.609000 497577.250000 -1.247000 1
156776.203000 497578.406000 -0.621000 1
156776.734000 497577.281000 -1.184000 1
156777.219000 497578.063000 -0.649000 1
156776.969000 497578.125000 -0.550000 1
156776.859000 497578.188000 -0.698000 1
156776.688000 497577.563000 -0.821000 1
156776.672000 497577.563000 -0.797000 1
156776.766000 497577.844000 -0.642000 1
156776.438000 497577.875000 -0.693000 1
156776.938000 497578.531000 -0.879000 1
156777.156000 497577.813000 -1.340000 1
156776.813000 497578.813000 -1.177000 1
156776.063000 497577.813000 -1.223000 1
156776.469000 497578.031000 -2.455000 1
156776.141000 497578.156000 -1.746000 1
156777.172000 497578.781000 -1.280000 1
156776.719000 497579.219000 -2.135000 1
156777.484000 497579.094000 -1.466000 1
156776.531000 497578.313000 -1.950000 1
156776.703000 497578.969000 -1.973000 1
156776.781000 497578.906000 -2.193000 1
156777.547000 497578.844000 -1.648000 1
156777.531000 497578.906000 -2.544000 1
156777.047000 497578.969000 -2.172000 1
156777.219000 497578.563000 -2.563000 1
156777.406000 497577.781000 -1.327000 1
156777.750000 497578.719000 -1.483000 1
156777.984000 497578.656000 -1.466000 1
156777.563000 497578.031000 -1.396000 1
156778.344000 497578.000000 -1.547000 1
156777.828000 497577.625000 -1.966000 1
156778.656000 497577.750000 -1.733000 1
156778.266000 497577.719000 -1.594000 1
156778.219000 497577.656000 -1.605000 1
156778.188000 497577.375000 -1.720000 1
156778.672000 497577.563000 -1.586000 1
156779.609000 497576.875000 -1.720000 1
156778.734000 497577.438000 -1.742000 1
156779.031000 497577.594000 -1.310000 1
156779.563000 497576.906000 -1.668000 1
156779.047000 497577.469000 -1.468000 1
156779.391000 497576.188000 -1.228000 1
156779.047000 497576.031000 -2.068000 1
156779.016000 497576.219000 -2.239000 1
156779.094000 497577.313000 -1.564000 1
156779.484000 497576.563000 -1.323000 1
156779.297000 497576.969000 -1.607000 1
156779.328000 497576.344000 -1.260000 1
156779.172000 497577.000000 -1.645000 1
156778.969000 497577.156000 -1.604000 1
156779.109000 497576.281000 -1.138000 1
156779.250000 497576.656000 -1.125000 1
156779.203000 497576.625000 -1.099000 1
156778.969000 497576.469000 -1.356000 1
156777.797000 497576.125000 -0.114000 1
156778.875000 497576.813000 -1.121000 1
156777.297000 497576.938000 -0.173000 1
156777.234000 497576.719000 -0.760000 1
156777.656000 497576.719000 -0.257000 1
156777.625000 497576.750000 -0.372000 1
156777.563000 497577.094000 -0.648000 1
156778.000000 497576.688000 -0.568000 1
156777.906000 497576.344000 -0.653000 1
156778.094000 497576.531000 -0.697000 1
156778.797000 497576.500000 -1.322000 1
156778.500000 497576.906000 -1.112000 1
156778.391000 497576.969000 -1.090000 1
156778.469000 497576.656000 -1.010000 1
156778.719000 497576.188000 -1.446000 1
156778.078000 497577.000000 -1.101000 1
156778.453000 497576.719000 -1.939000 1
156778.344000 497576.344000 -2.145000 1
156778.516000 497576.406000 -1.890000 1
156778.422000 497576.656000 -1.769000 1
156778.156000 497576.281000 -1.952000 1
156777.984000 497576.969000 -2.405000 1
156777.531000 497577.250000 -2.560000 1
156777.766000 497576.250000 -1.926000 1
156776.000000 497577.500000 -2.966000 1
156776.438000 497577.219000 -1.708000 1
156776.391000 497577.781000 -2.753000 1
156777.328000 497577.125000 -2.517000 1
156777.250000 497576.969000 -2.544000 1
156776.641000 497577.688000 -2.558000 1
156777.000000 497577.219000 -2.273000 1
156776.797000 497577.031000 -2.404000 1
156775.297000 497577.063000 -2.613000 1
156775.453000 497577.063000 -2.682000 1
156776.219000 497577.063000 -2.338000 1
