154580.859000 496937.219000 -1.414000 0
154581.531000 496936.750000 -1.802000 0
154581.938000 496937.000000 -1.733000 0
154581.938000 496936.969000 -0.756000 0
154581.734000 496937.531000 -0.099000 0
154582.563000 496937.844000 0.224000 0
154583.203000 496937.125000 0.253000 0
154582.984000 496936.313000 0.396000 0
154583.578000 496935.781000 0.001000 0
154583.109000 496935.719000 -0.126000 0
154582.500000 496936.250000 -0.013000 0
154582.938000 496936.125000 0.031000 0
154583.281000 496936.344000 0.229000 0
154583.063000 496936.625000 0.493000 0
154583.375000 496936.688000 0.227000 0
154583.297000 496937.500000 0.297000 0
154583.656000 496937.781000 -0.549000 0
154584.391000 496937.500000 -0.849000 0
154584.047000 496937.625000 -1.689000 0
154584.844000 496937.281000 -1.727000 0
154584.734000 496936.844000 -2.555000 0
154584.625000 496936.438000 -3.248000 0
154583.750000 496936.438000 -3.379000 0
154583.906000 496935.594000 -3.419000 0
154583.625000 496936.000000 -3.320000 0
154583.984000 496935.906000 -3.304000 0
154584.094000 496936.344000 -3.330000 0
154584.531000 496936.063000 -3.360000 0
154584.656000 496936.563000 -2.737000 0
154585.016000 496936.875000 -2.536000 0
154585.578000 496937.156000 -1.898000 0
154585.344000 496936.250000 -1.612000 0
154586.125000 496936.156000 -1.171000 0
154586.234000 496936.563000 -1.212000 0
154585.547000 496935.656000 -1.235000 0
154585.719000 496936.313000 -1.057000 0
154585.672000 496936.156000 -1.622000 0
154585.563000 496937.094000 -0.923000 0
154586.078000 496937.688000 -0.671000 0
154585.875000 496938.281000 -1.110000 0
154586.219000 496938.250000 -2.043000 0
154585.422000 496938.406000 -2.518000 0
154585.375000 496939.313000 -2.125000 0
154584.938000 496939.594000 -1.330000 0
154584.734000 496940.250000 -0.809000 0
154584.266000 496940.125000 0.041000 0
154583.484000 496940.125000 0.632000 0
154582.813000 496940.375000 0.031000 0
154582.375000 496939.969000 -0.610000 0
154583.000000 496939.563000 -1.160000 0
154583.688000 496939.031000 -1.626000 0
154584.094000 496939.500000 -1.932000 0
154583.813000 496939.500000 -1.808000 0
154583.984000 496939.063000 -1.860000 0
154583.125000 496938.688000 -1.397000 0
154582.781000 496938.719000 -0.988000 0
154582.063000 496938.781000 -0.447000 0
154582.500000 496939.156000 0.222000 0
154583.219000 496939.031000 0.482000 0
154583.969000 496939.031000 0.931000 0
154584.656000 496938.500000 1.367000 0
154585.453000 496938.563000 0.779000 0
154586.016000 496938.813000 1.325000 0
154586.641000 496938.156000 1.230000 0
154587.156000 496938.938000 1.119000 0
154587.484000 496938.469000 1.875000 0
154588.234000 496938.219000 1.516000 0
154588.469000 496939.125000 1.231000 0
154588.563000 496939.500000 2.075000 0
154587.797000 496939.625000 1.852000 0
154587.063000 496939.781000 1.748000 0
154587.938000 496940.188000 1.433000 0
154588.781000 496940.344000 0.995000 0
154589.078000 496940.063000 0.600000 0
154589.734000 496939.406000 0.468000 0
154589.188000 496938.938000 0.176000 0
154589.516000 496938.594000 -0.302000 0
154590.094000 496939.313000 -0.653000 0
154590.781000 496939.063000 -0.219000 0
154591.625000 496939.094000 -0.700000 0
154592.266000 496938.594000 -0.161000 0
154592.813000 496939.250000 -0.553000 0
154593.047000 496940.125000 -0.875000 0
154593.266000 496940.969000 -1.117000 0
154592.609000 496941.563000 -1.439000 0
154593.156000 496942.000000 -1.151000 0
154592.969000 496942.969000 -1.072000 0
154592.125000 496942.781000 -0.573000 0
154591.563000 496942.094000 -0.151000 0
154591.016000 496941.531000 -0.749000 0
154590.406000 496942.000000 -0.274000 0
154590.219000 496942.938000 -0.422000 0
154589.859000 496943.063000 -1.232000 0
154590.531000 496942.469000 -1.433000 0
154589.984000 496942.031000 -1.795000 0
154589.469000 496941.563000 -2.143000 0
154588.594000 496941.125000 -2.273000 0
154588.391000 496941.906000 -2.782000 0
154587.797000 496941.406000 -2.962000 0
154588.031000 496940.563000 -3.213000 0
154588.656000 496939.844000 -3.264000 0
154589.391000 496939.781000 -2.667000 0
154589.609000 496940.594000 -2.907000 0
154590.359000 496940.375000 -3.232000 0
154591.203000 496940.688000 -3.198000 0
154591.328000 496941.188000 -2.516000 0
154591.625000 496940.844000 -2.138000 0
154592.359000 496940.563000 -2.701000 0
154592.984000 496939.844000 -2.901000 0
154592.891000 496939.500000 -2.010000 0
154593.547000 496939.094000 -2.463000 0
154593.547000 496939.094000 -3.386000 0
154592.719000 496938.813000 -3.218000 0
154592.938000 496938.094000 -3.376000 0
154592.313000 496938.750000 -3.312000 0
154592.391000 496939.063000 -3.143000 0
154592.625000 496938.469000 -3.274000 0
154593.063000 496938.531000 -3.420000 0
154593.391000 496938.500000 -1.955000 0
154593.406000 496938.563000 -1.166000 0
154594.031000 496939.281000 -2.490000 0
154593.813000 496940.156000 -2.250000 0
154594.234000 496940.094000 -1.884000 0
154593.609000 496940.656000 -2.196000 0
154593.938000 496940.594000 -2.392000 0
154594.156000 496939.781000 -1.969000 0
154593.406000 496939.875000 -2.213000 0
154592.781000 496939.063000 -2.883000 0
154592.500000 496939.469000 -3.265000 0
154593.250000 496939.313000 -2.664000 0
154592.906000 496939.531000 -3.062000 0
154593.016000 496940.000000 -2.374000 0
154592.609000 496939.938000 -2.616000 0
154592.797000 496940.656000 -2.441000 0
154591.766000 496941.406000 -2.669000 0
154591.938000 496942.063000 -3.360000 0
154591.797000 496943.000000 -3.223000 0
154591.125000 496943.344000 -3.050000 0
154590.516000 496944.063000 -3.174000 0
154590.656000 496944.625000 -2.507000 0
154590.500000 496945.531000 -2.702000 0
154590.391000 496945.125000 -3.404000 0
154591.219000 496945.156000 -3.433000 0
154590.469000 496945.438000 -3.402000 0
154590.547000 496945.719000 -2.138000 0
154590.203000 496945.813000 -2.304000 0
154589.359000 496945.688000 -1.857000 0
154588.516000 496945.375000 -1.658000 0
154587.844000 496945.875000 -2.173000 0
154586.969000 496945.500000 -2.366000 0
154586.219000 496945.969000 -1.975000 0
154586.719000 496946.469000 -1.450000 0
154585.656000 496946.594000 -1.797000 0
154585.781000 496946.000000 -2.249000 0
154586.656000 496946.250000 -1.893000 0
154586.172000 496945.813000 -2.467000 0
154587.000000 496945.625000 -1.670000 0
154586.625000 496946.094000 -2.405000 0
154588.047000 496945.281000 -2.796000 0
154587.547000 496944.750000 -3.118000 0
154586.672000 496944.313000 -3.233000 0
154586.875000 496944.031000 -3.352000 0
154586.594000 496944.000000 -3.371000 0
154588.203000 496944.156000 -3.303000 0
154588.984000 496944.188000 -2.885000 0
154589.625000 496943.563000 -3.169000 0
154589.547000 496943.219000 -3.284000 0
154589.109000 496944.719000 -2.204000 0
154589.594000 496945.000000 -2.559000 0
154589.547000 496944.813000 -2.890000 0
154589.484000 496944.563000 -3.219000 0
154588.891000 496943.844000 -2.944000 0
154588.828000 496943.625000 -3.266000 0
154588.609000 496944.563000 -3.280000 0
154588.094000 496943.750000 -3.192000 0
154587.703000 496943.969000 -3.299000 0
154586.938000 496944.281000 -3.084000 0
154587.156000 496945.125000 -3.285000 0
154587.781000 496944.281000 -3.085000 0
154587.063000 496944.781000 -3.305000 0
154587.469000 496944.406000 -3.245000 0
154587.859000 496944.594000 -2.892000 0
154587.969000 496945.000000 -2.987000 0
154587.281000 496945.625000 -2.751000 0
154587.344000 496945.875000 -1.569000 0
154587.703000 496945.344000 -2.709000 0
154587.734000 496945.469000 -2.162000 0
154589.125000 496944.750000 -1.495000 0
154588.719000 496944.938000 -2.394000 0
154588.422000 496945.000000 -1.685000 0
154588.609000 496945.750000 -1.678000 0
154588.859000 496945.500000 -1.920000 0
154588.938000 496945.781000 -1.682000 0
154589.281000 496945.344000 -1.928000 0
154589.688000 496945.375000 -1.628000 0
154590.859000 496945.406000 -2.626000 0
154589.922000 496944.688000 -2.321000 0
154591.203000 496945.094000 -2.345000 0
154590.328000 496944.906000 -2.070000 0
154589.875000 496944.500000 -2.759000 0
154589.703000 496943.875000 -3.043000 0
154589.813000 496944.250000 -3.163000 0
154590.266000 496944.625000 -3.207000 0
154590.641000 496944.563000 -3.380000 0
154590.078000 496943.906000 -3.261000 0
154590.156000 496944.188000 -3.108000 0
154590.438000 496943.750000 -3.231000 0
154590.828000 496943.625000 -3.278000 0
154592.297000 496943.438000 -3.026000 0
154592.313000 496943.500000 -2.331000 0
154591.484000 496943.344000 -3.285000 0
154592.203000 496943.125000 -3.196000 0
154591.297000 496942.594000 -3.299000 0
154591.703000 496942.625000 -3.254000 0
154592.031000 496942.438000 -3.362000 0
154590.922000 496941.188000 -2.655000 0
154590.516000 496940.969000 -1.838000 0
154591.250000 496940.875000 -2.653000 0
154590.875000 496940.969000 -3.113000 0
154590.531000 496941.031000 -2.873000 0
154590.188000 496939.688000 -3.351000 0
154590.406000 496940.531000 -2.646000 0
154590.063000 496940.656000 -2.584000 0
154589.297000 496940.906000 -3.222000 0
154590.016000 496940.469000 -3.116000 0
154588.969000 496939.656000 -1.915000 0
154589.844000 496939.844000 -3.353000 0
154589.172000 496940.406000 -2.923000 0
154589.375000 496939.656000 -3.322000 0
154589.125000 496940.219000 -3.294000 0
154588.828000 496940.469000 -3.057000 0
154588.375000 496940.313000 -3.035000 0
154587.063000 496941.469000 -2.641000 0
154586.938000 496942.375000 -2.693000 0
154586.484000 496942.531000 -2.423000 0
154587.234000 496942.188000 -2.496000 0
154587.719000 496941.094000 -3.112000 0
154587.906000 496941.844000 -3.201000 0
154589.203000 496940.500000 -2.255000 0
154588.109000 496940.844000 -2.916000 0
154588.297000 496941.594000 -2.868000 0
154588.438000 496940.531000 -2.730000 0
154588.188000 496941.156000 -2.760000 0
154588.875000 496940.656000 -2.444000 0
154588.516000 496940.844000 -2.485000 0
154590.156000 496941.031000 -1.726000 0
154589.625000 496940.625000 -2.073000 0
154590.125000 496940.906000 -2.291000 0
154589.313000 496940.938000 -1.504000 0
154589.141000 496941.688000 -1.309000 0
154589.172000 496941.813000 -0.779000 0
154589.219000 496942.000000 -0.279000 0
154588.938000 496940.906000 -2.184000 0
154588.703000 496941.563000 -2.449000 0
154589.047000 496941.344000 -1.473000 0
154589.688000 496940.906000 -1.830000 0
154589.828000 496941.438000 -1.331000 0
154589.828000 496941.438000 -2.233000 0
154589.594000 496942.031000 -2.339000 0
154589.922000 496941.781000 -2.111000 0
154590.375000 496941.875000 -1.820000 0
154590.422000 496942.094000 -1.472000 0
154590.031000 496942.188000 -1.294000 0
154589.672000 496943.750000 -0.914000 0
154590.484000 496943.938000 -0.888000 0
154591.156000 496943.469000 -0.589000 0
154590.969000 496944.156000 -1.009000 0
154590.859000 496943.781000 -0.974000 0
154590.547000 496944.188000 -0.612000 0
154590.094000 496944.000000 -0.743000 0
154589.750000 496944.031000 -0.739000 0
154590.031000 496943.781000 -1.127000 0
154589.422000 496942.781000 -1.266000 0
154589.766000 496942.719000 -1.393000 0
154589.500000 496943.094000 -1.154000 0
154589.563000 496943.313000 -0.883000 0
154590.750000 496943.344000 -0.905000 0
154589.922000 496943.344000 -1.051000 0
154590.344000 496943.438000 -0.638000 0
154589.547000 496941.875000 -0.233000 0
154589.844000 496941.500000 -0.525000 0
154590.047000 496942.313000 -0.646000 0
154590.109000 496942.500000 -0.218000 0
154589.922000 496941.781000 -0.303000 0
154590.516000 496942.406000 -0.354000 0
154590.672000 496941.563000 -1.401000 0
154590.969000 496941.313000 -1.195000 0
154590.719000 496941.719000 -0.981000 0
154591.750000 496941.344000 -0.720000 0
154591.984000 496940.469000 -0.539000 0
154592.156000 496939.813000 0.101000 0
154591.344000 496939.813000 0.360000 0
154590.875000 496939.406000 0.897000 0
154590.594000 496939.906000 1.284000 0
154591.125000 496940.406000 1.275000 0
154590.516000 496939.594000 1.211000 0
154591.047000 496940.094000 1.047000 0
154591.516000 496940.406000 0.643000 0
154591.219000 496939.344000 0.656000 0
154591.391000 496939.938000 0.902000 0
154590.984000 496939.875000 0.723000 0
154590.313000 496940.188000 0.052000 0
154591.797000 496939.781000 0.336000 0
154590.938000 496942.594000 -0.308000 0
154591.438000 496941.594000 -0.735000 0
154591.109000 496941.906000 -0.754000 0
154590.813000 496942.125000 -0.097000 0
154591.313000 496942.688000 0.079000 0
154591.172000 496942.125000 -0.386000 0
154592.313000 496943.531000 -0.510000 0
154591.734000 496942.750000 -0.003000 0
154592.203000 496943.125000 -0.499000 0
154592.078000 496942.594000 -1.017000 0
154592.688000 496943.219000 -0.824000 0
154592.641000 496943.000000 -1.144000 0
154592.578000 496942.750000 -1.400000 0
154592.844000 496942.500000 -0.893000 0
154592.453000 496942.281000 -1.279000 0
154592.797000 496942.250000 -1.330000 0
154592.344000 496941.875000 -1.165000 0
154593.047000 496940.125000 -1.742000 0
154592.313000 496940.438000 -0.542000 0
154592.766000 496940.500000 -1.136000 0
154593.125000 496940.406000 -0.689000 0
154593.484000 496938.844000 -0.839000 0
154592.531000 496939.656000 0.010000 0
154592.578000 496938.281000 -0.977000 0
154592.031000 496937.719000 -0.773000 0
154591.313000 496937.906000 -1.347000 0
154591.578000 496937.594000 -1.793000 0
154591.563000 496937.531000 -2.530000 0
154591.063000 496936.938000 -2.791000 0
154590.484000 496936.438000 -3.325000 0
154590.250000 496935.563000 -3.093000 0
154590.547000 496934.906000 -3.329000 0
154591.188000 496934.438000 -2.751000 0
154590.672000 496934.094000 -3.279000 0
154589.797000 496933.813000 -3.364000 0
154590.453000 496934.531000 -3.354000 0
154590.078000 496934.906000 -3.296000 0
154589.688000 496936.375000 -2.942000 0
154589.063000 496936.813000 -3.254000 0
154589.594000 496937.375000 -3.182000 0
154589.641000 496937.594000 -2.844000 0
154589.891000 496937.188000 -2.175000 0
154590.219000 496936.906000 -2.211000 0
154588.781000 496937.375000 -3.166000 0
154589.172000 496937.219000 -3.287000 0
154588.688000 496937.000000 -3.250000 0
154587.906000 496936.938000 -2.676000 0
154588.281000 496937.000000 -1.976000 0
154588.297000 496937.063000 -1.225000 0
154588.781000 496937.375000 -0.463000 0
154589.391000 496936.594000 -0.406000 0
154589.516000 496935.750000 -0.491000 0
154589.031000 496935.250000 -0.696000 0
154588.625000 496935.125000 0.020000 0
154588.766000 496934.250000 -0.042000 0
154587.906000 496934.000000 0.401000 0
154587.141000 496933.969000 0.031000 0
154587.281000 496933.125000 0.046000 0
154587.969000 496932.594000 -0.227000 0
154588.734000 496932.719000 -0.274000 0
154589.422000 496932.375000 -0.731000 0
154590.328000 496932.750000 -0.920000 0
154589.672000 496933.344000 -0.471000 0
154590.172000 496933.469000 0.240000 0
154590.656000 496934.063000 0.493000 0
154591.406000 496933.813000 -0.066000 0
154591.641000 496934.688000 -0.460000 0
154590.906000 496934.969000 0.121000 0
154590.125000 496935.063000 0.078000 0
154590.578000 496935.031000 0.056000 0
154590.781000 496934.500000 -0.599000 0
154592.266000 496934.188000 -0.570000 0
154592.625000 496933.906000 -1.277000 0
154592.984000 496933.563000 -1.935000 0
154592.688000 496934.125000 -0.939000 0
154591.766000 496935.188000 0.095000 0
154591.359000 496935.125000 0.086000 0
154591.688000 496934.875000 0.013000 0
154591.297000 496934.844000 -0.150000 0
154592.063000 496934.688000 -0.551000 0
154591.969000 496934.344000 -0.624000 0
154591.797000 496933.688000 -0.839000 0
154592.391000 496932.969000 -0.834000 0
154591.531000 496932.688000 -1.109000 0
154591.906000 496932.750000 -1.699000 0
154592.359000 496932.813000 -1.448000 0
154591.953000 496932.969000 -1.236000 0
154591.609000 496932.938000 -0.806000 0
154592.000000 496933.125000 -0.752000 0
154592.047000 496933.344000 -0.409000 0
154591.656000 496933.125000 -0.444000 0
154592.141000 496933.688000 -0.294000 0
154591.250000 496933.156000 -0.419000 0
154591.875000 496933.969000 -0.609000 0
154591.344000 496933.563000 -0.440000 0
154590.484000 496934.719000 -0.089000 0
154591.094000 496934.063000 0.001000 0
154590.797000 496934.594000 0.141000 0
154591.156000 496934.313000 0.257000 0
154589.875000 496934.125000 0.458000 0
154590.328000 496934.094000 0.384000 0
154589.781000 496933.781000 0.432000 0
154590.594000 496933.781000 0.258000 0
154589.703000 496933.469000 0.264000 0
154590.813000 496932.969000 -0.090000 0
154590.438000 496933.188000 -0.167000 0
154590.094000 496933.188000 -0.959000 0
154590.375000 496932.938000 -0.493000 0
154590.719000 496932.656000 -1.132000 0
154589.625000 496933.156000 -0.935000 0
154590.016000 496932.844000 -1.031000 0
154589.531000 496932.813000 -0.872000 0
154589.094000 496932.563000 -0.773000 0
154589.219000 496933.031000 -0.120000 0
154588.844000 496933.156000 -0.476000 0
154589.141000 496932.750000 -0.350000 0
154588.406000 496932.813000 -0.139000 0
154586.766000 496932.563000 -0.250000 0
154587.078000 496932.375000 -0.787000 0
154586.734000 496932.406000 -0.765000 0
154586.000000 496932.688000 -1.257000 0
154585.516000 496932.625000 -0.769000 0
154584.734000 496932.531000 -1.000000 0
154583.938000 496932.688000 -1.356000 0
154584.094000 496933.313000 -1.082000 0
154584.625000 496933.438000 -0.318000 0
154585.125000 496934.000000 0.064000 0
154584.422000 496934.625000 0.244000 0
154585.234000 496934.469000 -0.148000 0
154584.875000 496934.406000 0.065000 0
154584.781000 496934.063000 0.060000 0
154584.766000 496933.969000 -0.646000 0
154585.188000 496934.250000 -1.481000 0
154585.609000 496934.156000 -1.869000 0
154585.891000 496934.063000 -2.474000 0
154586.063000 496934.719000 -3.135000 0
154586.750000 496934.031000 -3.264000 0
154587.203000 496934.219000 -2.565000 0
154587.344000 496934.750000 -2.829000 0
154587.141000 496935.500000 -3.336000 0
154586.391000 496935.969000 -3.386000 0
154586.594000 496936.750000 -3.412000 0
154586.016000 496935.719000 -2.865000 0
154586.453000 496936.219000 -2.991000 0
154586.172000 496936.313000 -3.349000 0
154587.672000 496936.031000 -3.288000 0
154586.797000 496935.781000 -3.406000 0
154587.469000 496935.219000 -3.045000 0
154586.219000 496933.531000 -3.356000 0
154587.109000 496933.875000 -3.469000 0
154587.797000 496933.563000 -3.080000 0
154585.938000 496935.406000 -2.979000 0
154586.609000 496935.031000 -3.375000 0
154586.500000 496934.625000 -3.280000 0
154586.156000 496935.094000 -3.012000 0
154586.313000 496933.875000 -3.300000 0
154586.391000 496934.188000 -3.116000 0
154585.047000 496933.719000 -0.178000 0
154584.969000 496933.406000 -0.386000 0
154584.297000 496934.125000 -1.228000 0
154584.219000 496933.781000 -1.362000 0
154583.828000 496933.344000 -1.140000 0
154584.016000 496932.969000 -1.179000 0
154584.531000 496933.125000 -0.447000 0
154584.344000 496932.375000 -1.395000 0
154584.484000 496932.906000 -0.790000 0
154584.422000 496932.656000 -1.171000 0
154584.813000 496932.813000 -0.817000 0
154585.266000 496932.875000 -0.379000 0
154585.188000 496932.563000 -0.560000 0
154585.672000 496933.188000 -1.160000 0
154588.016000 496932.813000 0.131000 0
154587.141000 496932.563000 -0.378000 0
154586.859000 496932.875000 -0.112000 0
154587.641000 496932.969000 0.207000 0
154587.219000 496932.875000 -0.235000 0
154586.922000 496933.156000 0.068000 0
154586.594000 496933.438000 0.018000 0
154586.703000 496933.813000 -0.004000 0
154587.031000 496933.563000 0.043000 0
154587.359000 496933.406000 0.385000 0
154587.188000 496934.156000 0.388000 0
154587.484000 496933.906000 0.094000 0
154587.844000 496933.750000 0.071000 0
154587.531000 496934.094000 0.559000 0
154589.438000 496933.906000 0.550000 0
154589.547000 496934.313000 0.439000 0
154588.563000 496933.469000 0.031000 0
154588.250000 496933.656000 -0.089000 0
154588.984000 496933.688000 0.045000 0
154589.094000 496934.094000 -0.035000 0
154589.172000 496934.438000 -0.015000 0
154588.422000 496934.344000 0.037000 0
154588.141000 496934.906000 0.039000 0
154588.891000 496934.688000 -0.273000 0
154589.734000 496935.063000 -0.465000 0
154589.797000 496935.281000 -0.081000 0
154589.906000 496935.719000 -0.255000 0
154589.109000 496935.563000 -0.572000 0
154588.438000 496936.063000 -0.930000 0
154587.969000 496935.781000 -1.710000 0
154588.000000 496935.906000 -1.182000 0
154589.453000 496935.469000 -0.720000 0
154588.922000 496936.281000 -1.000000 0
154589.609000 496936.063000 -0.330000 0
154589.766000 496936.688000 -0.037000 0
154589.313000 496936.344000 -0.631000 0
154589.719000 496936.500000 -0.457000 0
154588.984000 496936.500000 -0.608000 0
154589.484000 496937.000000 -0.476000 0
154589.063000 496936.844000 -0.595000 0
154589.234000 496937.500000 -0.357000 0
154589.156000 496937.219000 -0.616000 0
154588.875000 496937.781000 -0.465000 0
154588.063000 496937.563000 -0.473000 0
154588.594000 496936.656000 -0.478000 0
154588.141000 496936.438000 -0.604000 0
154588.438000 496937.563000 -0.584000 0
154588.703000 496937.094000 -0.721000 0
154588.016000 496937.375000 -1.002000 0
154588.359000 496937.250000 -0.834000 0
154588.141000 496936.438000 -1.592000 0
154588.047000 496937.500000 -2.147000 0
154587.844000 496938.219000 -1.574000 0
154587.422000 496938.188000 -2.006000 0
154587.766000 496937.938000 -2.824000 0
154587.797000 496938.063000 -2.173000 0
154587.531000 496937.000000 -3.288000 0
154587.984000 496937.219000 -2.337000 0
154588.953000 496936.375000 -3.081000 0
154589.859000 496937.063000 -2.738000 0
154589.484000 496936.969000 -3.157000 0
154589.391000 496936.625000 -3.155000 0
154589.641000 496936.188000 -3.333000 0
154590.734000 496935.625000 -3.385000 0
154589.938000 496935.813000 -3.238000 0
154589.813000 496936.875000 -3.282000 0
154590.359000 496935.969000 -3.096000 0
154590.031000 496936.188000 -3.217000 0
154590.844000 496936.063000 -3.387000 0
154591.188000 496936.063000 -2.551000 0
154590.641000 496937.063000 -2.105000 0
154590.563000 496936.781000 -2.362000 0
154591.859000 496937.063000 -1.904000 0
154590.953000 496938.250000 -1.368000 0
154591.250000 496937.625000 -1.708000 0
154591.375000 496938.094000 -1.020000 0
154591.547000 496937.500000 -0.631000 0
154591.656000 496937.875000 -0.675000 0
154591.938000 496937.344000 -0.835000 0
154592.469000 496937.906000 -1.003000 0
154592.734000 496938.938000 -0.663000 0
154592.453000 496939.313000 -0.163000 0
154592.625000 496938.500000 -0.528000 0
154592.188000 496938.281000 -0.340000 0
154592.078000 496939.500000 -0.088000 0
154592.391000 496939.063000 -0.496000 0
154591.969000 496939.063000 0.005000 0
154591.813000 496938.469000 -0.318000 0
154591.750000 496939.594000 -0.157000 0
154591.484000 496938.563000 -1.183000 0
154591.594000 496938.969000 -1.279000 0
154591.125000 496938.938000 -1.111000 0
154591.125000 496938.969000 0.543000 0
154590.984000 496938.375000 0.195000 0
154591.297000 496939.625000 -0.081000 0
154591.078000 496938.750000 0.267000 0
154590.844000 496939.313000 0.176000 0
154590.563000 496939.781000 -0.253000 0
154589.359000 496937.969000 -0.619000 0
154590.406000 496939.188000 0.293000 0
154589.656000 496939.125000 0.143000 0
154589.906000 496940.063000 0.609000 0
154589.828000 496939.781000 0.497000 0
154589.484000 496940.125000 0.035000 0
154588.719000 496940.094000 0.645000 0
154589.141000 496940.281000 0.939000 0
154588.453000 496940.594000 0.866000 0
154588.344000 496940.188000 0.855000 0
154587.344000 496939.688000 2.035000 0
154589.281000 496939.313000 1.134000 0
154589.172000 496938.938000 1.151000 0
154588.203000 496939.625000 1.358000 0
154588.516000 496939.313000 1.684000 0
154589.047000 496938.438000 1.444000 0
154588.984000 496938.188000 1.209000 0
154588.094000 496937.688000 0.987000 0
154587.906000 496936.938000 1.003000 0
154588.594000 496936.688000 1.208000 0
154587.609000 496937.344000 0.596000 0
154586.750000 496937.375000 0.455000 0
154586.453000 496937.469000 0.359000 0
154587.094000 496936.938000 0.090000 0
154587.172000 496937.250000 0.281000 0
154587.250000 496937.531000 0.470000 0
154587.609000 496937.375000 1.402000 0
154588.391000 496937.438000 0.709000 0
154588.016000 496937.375000 0.852000 0
154588.453000 496937.656000 1.051000 0
154588.703000 496938.594000 1.435000 0
154588.047000 496939.063000 1.882000 0
154587.672000 496939.188000 2.024000 0
154586.984000 496939.500000 1.603000 0
154587.234000 496939.250000 1.435000 0
154586.938000 496939.313000 1.122000 0
154586.844000 496937.750000 0.457000 0
154587.438000 496938.281000 1.434000 0
154587.328000 496937.844000 1.548000 0
154586.984000 496938.281000 1.886000 0
154586.094000 496937.750000 0.987000 0
154586.844000 496937.719000 1.384000 0
154586.531000 496937.750000 1.316000 0
154586.984000 496938.281000 1.010000 0
154586.844000 496938.969000 1.063000 0
154585.391000 496939.406000 1.485000 0
154584.578000 496939.688000 1.383000 0
154585.141000 496940.406000 1.331000 0
154584.406000 496940.688000 1.424000 0
154584.234000 496941.094000 0.621000 0
154584.656000 496941.656000 -0.051000 0
154585.281000 496940.938000 -0.001000 0
154586.078000 496941.000000 0.394000 0
154585.875000 496940.188000 0.410000 0
154585.453000 496939.625000 -0.051000 0
154586.281000 496939.813000 -0.178000 0
154586.328000 496940.063000 0.137000 0
154585.531000 496939.938000 0.187000 0
154585.797000 496939.875000 0.300000 0
154586.250000 496941.625000 0.570000 0
154585.641000 496942.313000 0.364000 0
154585.297000 496942.406000 0.291000 0
154585.500000 496941.750000 0.758000 0
154586.078000 496942.031000 0.470000 0
154585.969000 496941.594000 0.596000 0
154586.172000 496941.344000 0.438000 0
154585.891000 496941.281000 0.444000 0
154585.984000 496940.625000 0.275000 0
154585.781000 496940.906000 0.427000 0
154585.750000 496940.750000 -0.093000 0
154585.359000 496941.219000 0.303000 0
154584.547000 496942.344000 0.341000 0
154584.797000 496942.219000 -0.550000 0
154583.969000 496941.938000 -0.164000 0
154584.828000 496942.344000 0.175000 0
154585.219000 496942.125000 0.038000 0
154584.953000 496941.125000 -0.273000 0
154584.344000 496941.500000 -0.377000 0
154585.031000 496941.438000 -0.068000 0
154584.703000 496941.844000 0.390000 0
154583.828000 496941.406000 0.257000 0
154584.266000 496941.250000 1.069000 0
154584.531000 496941.188000 1.051000 0
154584.859000 496940.719000 1.609000 0
154585.219000 496940.688000 1.544000 0
154584.797000 496940.531000 1.216000 0
154585.063000 496940.063000 1.129000 0
154586.734000 496938.500000 1.318000 0
154585.688000 496939.469000 1.289000 0
154585.563000 496939.031000 1.438000 0
154585.922000 496938.469000 1.191000 0
154585.313000 496939.125000 1.188000 0
154585.500000 496938.750000 1.135000 0
154585.281000 496937.938000 1.392000 0
154584.125000 496937.938000 1.118000 0
154585.234000 496938.813000 0.985000 0
154584.875000 496939.344000 1.058000 0
154584.328000 496938.719000 0.134000 0
154584.516000 496939.406000 1.199000 0
154583.750000 496939.281000 1.501000 0
154584.391000 496938.969000 1.312000 0
154584.328000 496938.719000 0.986000 0
154584.031000 496939.281000 1.236000 0
154583.891000 496938.688000 0.867000 0
154583.531000 496938.375000 0.902000 0
154583.063000 496938.469000 0.939000 0
154583.609000 496938.719000 0.924000 0
154583.703000 496939.094000 0.932000 0
154581.328000 496939.031000 -0.246000 0
154581.609000 496938.719000 0.043000 0
154581.719000 496939.125000 -0.100000 0
154582.125000 496939.031000 -0.197000 0
154582.313000 496938.406000 -0.694000 0
154582.391000 496938.750000 -0.545000 0
154582.844000 496938.938000 -0.572000 0
154583.172000 496938.906000 -0.986000 0
154583.328000 496939.469000 -1.441000 0
154583.063000 496939.813000 -0.792000 0
154581.844000 496939.625000 -0.412000 0
154582.625000 496939.625000 -0.868000 0
154581.953000 496940.063000 -0.565000 0
154582.688000 496939.844000 -0.553000 0
154582.547000 496940.656000 0.436000 0
154582.781000 496940.250000 -0.498000 0
154582.391000 496940.094000 0.025000 0
154582.484000 496940.438000 0.040000 0
154582.875000 496940.625000 0.398000 0
154583.031000 496939.688000 0.367000 0
154583.156000 496940.156000 0.124000 0
154583.281000 496940.656000 0.778000 0
154583.391000 496939.750000 0.665000 0
154583.188000 496940.281000 0.695000 0
154583.609000 496940.531000 0.585000 0
154584.141000 496940.750000 0.601000 0
154584.391000 496940.656000 0.602000 0
154583.969000 496940.094000 0.325000 0
154584.313000 496940.344000 0.382000 0
154585.250000 496940.781000 -0.581000 0
154584.750000 496940.313000 -0.203000 0
154585.188000 496940.563000 -0.925000 0
154584.250000 496940.094000 -0.726000 0
154584.422000 496939.031000 -1.606000 0
154585.422000 496939.531000 -0.764000 0
154585.094000 496940.188000 -1.021000 0
154584.656000 496939.969000 -1.189000 0
154585.016000 496939.906000 -1.247000 0
154584.813000 496939.094000 -1.970000 0
154585.828000 496938.063000 -3.304000 0
154586.375000 496938.813000 -3.425000 0
154586.656000 496938.188000 -3.349000 0
154586.563000 496937.875000 -3.400000 0
154586.234000 496938.313000 -3.186000 0
154585.734000 496937.719000 -3.281000 0
154586.156000 496938.000000 -3.355000 0
154585.141000 496938.438000 -1.787000 0
154585.047000 496938.031000 -2.687000 0
154584.672000 496938.563000 -3.426000 0
154584.063000 496939.344000 -3.460000 0
154584.250000 496940.094000 -3.384000 0
154585.141000 496940.375000 -3.197000 0
154585.406000 496939.469000 -3.466000 0
154584.484000 496941.000000 -2.978000 0
154584.391000 496941.688000 -2.632000 0
154583.703000 496942.281000 -2.237000 0
154583.266000 496942.156000 -1.414000 0
154583.141000 496942.906000 -1.316000 0
154583.969000 496943.313000 -1.090000 0
154584.766000 496943.156000 -1.637000 0
154584.828000 496943.438000 -1.501000 0
154583.813000 496944.188000 -0.969000 0
154583.406000 496943.969000 -1.053000 0
154584.469000 496943.906000 -1.258000 0
154584.156000 496944.000000 -0.874000 0
154583.703000 496943.813000 -0.917000 0
154584.203000 496942.875000 -1.400000 0
154584.297000 496943.188000 -1.362000 0
154584.359000 496943.438000 -1.074000 0
154584.063000 496943.688000 -1.065000 0
154583.906000 496943.031000 -1.299000 0
154583.297000 496943.531000 -0.954000 0
154582.844000 496943.469000 -1.573000 0
154582.766000 496943.156000 -1.654000 0
154583.531000 496943.125000 -1.128000 0
154583.219000 496943.250000 -1.227000 0
154583.422000 496942.750000 -1.067000 0
154583.031000 496942.531000 -1.370000 0
154583.375000 496942.531000 -1.511000 0
154584.141000 496942.594000 -1.745000 0
154584.094000 496942.406000 -2.129000 0
154584.719000 496941.906000 -3.370000 0
154585.422000 496941.438000 -3.052000 0
154584.016000 496942.125000 -2.355000 0
154584.484000 496942.063000 -2.632000 0
154584.281000 496941.281000 -3.369000 0
154584.563000 496941.313000 -2.850000 0
154585.906000 496940.281000 -3.440000 0
154584.953000 496941.094000 -2.906000 0
154585.328000 496941.125000 -3.232000 0
154585.609000 496940.219000 -3.313000 0
154585.250000 496940.781000 -3.328000 0
154585.047000 496940.000000 -3.233000 0
154584.781000 496940.438000 -3.145000 0
154583.844000 496938.531000 -3.275000 0
154583.750000 496938.156000 -3.360000 0
154584.469000 496939.219000 -2.960000 0
154584.828000 496939.188000 -3.103000 0
154584.234000 496938.313000 -3.380000 0
154584.766000 496938.906000 -3.307000 0
154585.469000 496938.594000 -2.068000 0
154587.016000 496938.406000 -2.044000 0
154586.734000 496938.469000 -2.151000 0
154585.922000 496938.438000 -2.371000 0
154585.188000 496938.594000 -1.308000 0
154585.484000 496938.688000 -1.354000 0
154585.609000 496937.281000 -0.443000 0
154585.406000 496936.500000 -1.278000 0
154586.031000 496937.500000 -1.211000 0
154585.953000 496937.219000 -1.449000 0
154585.078000 496937.125000 -2.264000 0
154584.578000 496938.188000 -1.557000 0
154584.859000 496937.344000 -1.008000 0
154583.422000 496937.969000 -0.866000 0
154583.672000 496937.844000 1.095000 0
154583.703000 496938.000000 -0.146000 0
154583.438000 496938.031000 0.781000 0
154582.734000 496937.219000 0.440000 0
154582.984000 496938.125000 -0.098000 0
154582.344000 496937.031000 0.397000 0
154582.453000 496937.438000 0.342000 0
154581.938000 496938.313000 -0.243000 0
154582.141000 496937.781000 -0.046000 0
154581.828000 496937.875000 -0.079000 0
154582.063000 496937.469000 -0.158000 0
154582.156000 496936.281000 -0.594000 0
154582.313000 496936.875000 -0.184000 0
154582.234000 496936.563000 -0.323000 0
154581.672000 496937.281000 -0.383000 0
154582.000000 496937.219000 -0.441000 0
154581.609000 496937.031000 -1.514000 0
154581.250000 496937.375000 -1.230000 0
154580.953000 496937.625000 -1.445000 0
154581.156000 496937.000000 -1.228000 0
154578.594000 496970.406000 -2.061000 1
154578.734000 496969.438000 -1.887000 1
154579.359000 496969.219000 -1.477000 1
154579.734000 496969.125000 -2.273000 1
154579.313000 496969.031000 -1.963000 1
154578.781000 496969.625000 -1.516000 1
154579.234000 496970.063000 -2.244000 1
154578.984000 496970.375000 -1.483000 1
154579.500000 496971.094000 -1.901000 1
154580.031000 496971.781000 -2.101000 1
154580.406000 496971.719000 -1.208000 1
154580.578000 496972.344000 -1.772000 1
154581.391000 496972.531000 -2.217000 1
154581.625000 496971.688000 -1.938000 1
154582.406000 496971.219000 -1.577000 1
154582.375000 496971.125000 -2.218000 1
154582.531000 496971.750000 -1.800000 1
154581.141000 496972.906000 -2.617000 1
154580.922000 496973.688000 -2.235000 1
154581.172000 496973.031000 -1.937000 1
154580.672000 496972.719000 -1.709000 1
154580.516000 496972.094000 -2.089000 1
154580.375000 496971.594000 -1.724000 1
154580.078000 496972.031000 -1.738000 1
154579.844000 496971.094000 -2.329000 1
154578.953000 496970.313000 -2.163000 1
