154255.375000 499172.094000 -0.071000 0
154256.109000 499172.125000 -0.543000 0
154256.172000 499170.813000 -1.597000 0
154255.656000 499170.406000 -1.282000 0
154255.828000 499171.063000 -1.428000 0
154255.766000 499170.844000 -1.094000 0
154255.063000 499170.875000 -1.589000 0
154255.141000 499170.000000 -0.936000 0
154254.797000 499169.906000 -1.307000 0
154255.000000 499169.438000 -0.566000 0
154254.734000 499169.688000 0.154000 0
154254.750000 499169.719000 -0.773000 0
154253.922000 499169.594000 -2.043000 0
154253.750000 499168.875000 -0.920000 0
154254.344000 499169.656000 -1.695000 0
154253.828000 499169.219000 -2.052000 0
154254.281000 499169.406000 -1.406000 0
154253.719000 499168.781000 -2.260000 0
154253.609000 499168.375000 -2.451000 0
154253.547000 499168.156000 -2.153000 0
154254.313000 499166.844000 -1.960000 0
154253.828000 499166.219000 -2.514000 0
154254.188000 499166.344000 -3.400000 0
154254.469000 499165.906000 -2.001000 0
154254.875000 499165.844000 -1.416000 0
154255.594000 499166.000000 -0.860000 0
154256.203000 499165.313000 -1.255000 0
154256.375000 499164.438000 -1.586000 0
154256.969000 499163.844000 -1.766000 0
154257.672000 499163.844000 -1.111000 0
154258.047000 499164.188000 -1.656000 0
154258.531000 499164.375000 -2.508000 0
154258.078000 499164.344000 -3.388000 0
154257.094000 499164.344000 -3.382000 0
154257.328000 499164.188000 -2.654000 0
154257.359000 499164.344000 -3.182000 0
154257.672000 499163.844000 -3.389000 0
154258.813000 499164.219000 -2.940000 0
154258.797000 499164.188000 -1.946000 0
154258.516000 499164.313000 -1.530000 0
154258.656000 499164.875000 -0.970000 0
154258.500000 499164.281000 -0.488000 0
154258.031000 499164.156000 -0.697000 0
154257.000000 499164.000000 -2.408000 0
154257.250000 499163.875000 -1.305000 0
154257.281000 499164.000000 -1.996000 0
154257.078000 499164.281000 -1.485000 0
154256.828000 499165.125000 -1.420000 0
154256.578000 499165.219000 -1.322000 0
154255.703000 499166.438000 -1.703000 0
154256.469000 499166.344000 -1.510000 0
154256.672000 499167.094000 -1.430000 0
154257.188000 499166.500000 -1.603000 0
154258.016000 499166.813000 -1.286000 0
154257.875000 499166.281000 -0.730000 0
154257.906000 499166.375000 -1.417000 0
154257.672000 499166.531000 -1.130000 0
154257.688000 499166.625000 -2.015000 0
154256.172000 499166.656000 -2.133000 0
154255.656000 499166.250000 -1.171000 0
154255.422000 499166.406000 -1.581000 0
154255.391000 499166.250000 -1.051000 0
154254.750000 499165.375000 -1.760000 0
154254.906000 499164.469000 -2.104000 0
154254.000000 499164.063000 -2.060000 0
154253.609000 499164.125000 -1.169000 0
154253.500000 499163.719000 -0.358000 0
154253.359000 499164.406000 -1.483000 0
154253.078000 499164.875000 -1.928000 0
154253.438000 499164.719000 -2.765000 0
154253.422000 499163.438000 -2.265000 0
154253.734000 499163.094000 -1.622000 0
154253.375000 499163.281000 -1.702000 0
154253.094000 499163.406000 -2.414000 0
154253.766000 499164.750000 -1.639000 0
154253.859000 499163.531000 -1.438000 0
154254.703000 499163.656000 -1.414000 0
154253.281000 499164.094000 -2.430000 0
154253.422000 499164.625000 -2.022000 0
154253.609000 499164.125000 -2.350000 0
154253.922000 499163.813000 -1.748000 0
154254.125000 499164.563000 -1.746000 0
154254.781000 499163.938000 -1.537000 0
154255.141000 499164.313000 -1.500000 0
154254.531000 499164.531000 -2.148000 0
154254.016000 499166.938000 -2.688000 0
154253.953000 499166.688000 -1.127000 0
154254.031000 499165.781000 -0.740000 0
154253.188000 499165.281000 -0.705000 0
154254.375000 499165.500000 0.080000 0
154253.813000 499166.156000 0.512000 0
154254.516000 499166.031000 0.604000 0
154254.563000 499166.219000 0.034000 0
154253.672000 499165.594000 -0.131000 0
154253.938000 499165.438000 -0.653000 0
154253.781000 499166.000000 -1.009000 0
154254.172000 499167.531000 -1.965000 0
154254.359000 499168.219000 -1.011000 0
154253.344000 499167.313000 -0.231000 0
154253.531000 499168.094000 -0.050000 0
154254.313000 499166.781000 2.347000 0
154253.703000 499167.219000 0.775000 0
154253.797000 499167.594000 1.930000 0
154254.047000 499167.000000 1.953000 0
154254.344000 499168.156000 2.140000 0
154254.422000 499168.438000 1.842000 0
154254.766000 499168.531000 1.087000 0
154255.469000 499168.094000 1.089000 0
154254.719000 499168.375000 1.678000 0
154255.375000 499167.750000 1.176000 0
154255.094000 499168.250000 1.849000 0
154254.219000 499167.688000 1.894000 0
154254.641000 499168.063000 1.805000 0
154255.016000 499167.938000 2.033000 0
154255.438000 499167.938000 2.898000 0
154255.266000 499168.906000 2.760000 0
154255.750000 499169.188000 3.384000 0
154255.578000 499170.063000 3.173000 0
154256.422000 499170.219000 3.264000 0
154255.266000 499170.438000 2.517000 0
154255.172000 499170.063000 2.512000 0
154256.000000 499170.125000 2.950000 0
154255.844000 499169.531000 3.318000 0
154255.422000 499169.469000 2.374000 0
154255.016000 499169.469000 1.707000 0
154255.344000 499169.156000 2.531000 0
154254.563000 499167.750000 2.025000 0
154254.750000 499166.906000 2.135000 0
154254.813000 499167.156000 1.787000 0
154255.734000 499166.531000 1.952000 0
154255.359000 499167.656000 2.026000 0
154255.281000 499167.344000 2.103000 0
154255.719000 499167.531000 1.846000 0
154255.875000 499167.063000 2.311000 0
154255.656000 499167.281000 2.067000 0
154257.203000 499167.625000 1.546000 0
154257.141000 499167.375000 1.934000 0
154257.469000 499167.563000 1.604000 0
154257.047000 499166.969000 1.738000 0
154258.094000 499167.094000 1.796000 0
154257.297000 499166.938000 1.753000 0
154258.016000 499166.813000 1.975000 0
154257.750000 499166.813000 1.827000 0
154257.578000 499166.156000 2.002000 0
154257.906000 499166.375000 1.845000 0
154257.813000 499166.031000 1.894000 0
154258.547000 499166.063000 1.795000 0
154258.297000 499166.250000 1.686000 0
154259.594000 499165.438000 1.737000 0
154258.813000 499164.219000 1.440000 0
154259.656000 499164.531000 1.074000 0
154259.938000 499164.031000 0.317000 0
154259.109000 499163.594000 0.584000 0
154259.672000 499162.969000 0.334000 0
154260.484000 499162.813000 -0.134000 0
154260.984000 499162.125000 -0.482000 0
154261.234000 499161.469000 0.228000 0
154260.422000 499161.281000 0.675000 0
154260.969000 499160.500000 0.568000 0
154260.469000 499160.156000 0.082000 0
154259.906000 499159.344000 0.114000 0
154260.047000 499158.563000 0.713000 0
154260.422000 499158.406000 0.833000 0
154260.938000 499157.656000 0.623000 0
154261.500000 499158.344000 0.475000 0
154261.422000 499158.031000 -0.461000 0
154261.531000 499158.469000 -1.201000 0
154262.375000 499158.906000 -0.922000 0
154262.828000 499159.469000 -1.459000 0
154263.250000 499159.625000 -1.103000 0
154263.516000 499159.188000 -0.268000 0
154264.031000 499158.406000 -0.363000 0
154263.500000 499157.813000 0.145000 0
154264.094000 499157.031000 -0.019000 0
154263.625000 499156.906000 -0.548000 0
154263.594000 499156.750000 -0.029000 0
154264.156000 499157.313000 -0.303000 0
154262.750000 499157.719000 -0.401000 0
154262.391000 499157.813000 -0.966000 0
154262.359000 499157.656000 -0.290000 0
154262.844000 499158.063000 -0.429000 0
154263.078000 499157.531000 0.150000 0
154263.156000 499157.844000 -0.062000 0
154263.234000 499158.125000 -0.218000 0
154264.313000 499157.844000 -0.918000 0
154264.813000 499158.438000 -1.159000 0
154265.391000 499159.156000 -0.817000 0
154265.875000 499159.719000 -1.291000 0
154265.344000 499160.469000 -1.612000 0
154264.484000 499160.125000 -1.721000 0
154264.313000 499160.875000 -1.380000 0
154264.844000 499161.500000 -1.877000 0
154264.313000 499162.250000 -1.857000 0
154263.516000 499162.094000 -2.236000 0
154262.766000 499161.656000 -2.679000 0
154262.531000 499162.281000 -2.796000 0
154262.453000 499162.000000 -2.676000 0
154263.406000 499161.656000 -1.402000 0
154263.313000 499161.250000 -0.511000 0
154263.859000 499160.563000 -0.405000 0
154263.781000 499160.219000 -0.431000 0
154263.156000 499160.688000 0.071000 0
154262.422000 499160.344000 -0.072000 0
154262.531000 499159.500000 -0.132000 0
154262.188000 499159.438000 0.460000 0
154262.500000 499159.375000 0.437000 0
154261.688000 499160.563000 -0.317000 0
154261.516000 499159.844000 -0.353000 0
154261.422000 499159.531000 -0.184000 0
154262.750000 499160.313000 -0.007000 0
154263.188000 499162.000000 -0.312000 0
154262.375000 499161.656000 -0.409000 0
154262.344000 499161.531000 0.248000 0
154261.969000 499161.563000 -0.552000 0
154263.688000 499162.719000 -0.420000 0
154263.891000 499163.500000 -0.184000 0
154263.469000 499164.313000 -0.029000 0
154264.125000 499164.375000 -0.700000 0
154264.047000 499165.250000 -0.273000 0
154264.531000 499165.938000 -0.410000 0
154264.750000 499166.781000 0.015000 0
154264.750000 499166.750000 0.992000 0
154263.953000 499166.156000 1.095000 0
154263.750000 499165.375000 0.774000 0
154262.922000 499165.219000 0.574000 0
154262.266000 499165.375000 0.243000 0
154261.484000 499165.344000 0.830000 0
154262.172000 499165.031000 1.322000 0
154262.844000 499164.938000 1.885000 0
154263.219000 499164.844000 1.594000 0
154261.953000 499164.250000 1.063000 0
154261.094000 499163.875000 0.715000 0
154261.188000 499162.906000 0.641000 0
154261.594000 499162.875000 1.193000 0
154261.719000 499163.313000 1.433000 0
154260.906000 499164.438000 1.443000 0
154260.922000 499163.219000 0.876000 0
154261.328000 499163.438000 1.171000 0
154260.766000 499163.875000 0.957000 0
154261.016000 499163.594000 0.984000 0
154262.125000 499163.469000 0.926000 0
154262.656000 499162.719000 0.573000 0
154263.484000 499163.094000 0.743000 0
154263.281000 499163.625000 1.101000 0
154263.594000 499163.500000 0.905000 0
154263.172000 499163.219000 0.920000 0
154262.750000 499163.063000 0.531000 0
154262.859000 499163.500000 0.881000 0
154262.563000 499163.844000 0.823000 0
154261.219000 499164.375000 1.120000 0
154261.406000 499163.750000 1.078000 0
154261.828000 499163.750000 0.638000 0
154262.328000 499164.250000 1.024000 0
154262.063000 499164.656000 1.356000 0
154261.594000 499164.469000 0.976000 0
154261.359000 499166.125000 1.151000 0
154261.156000 499167.031000 1.316000 0
154260.391000 499167.313000 1.810000 0
154260.563000 499168.000000 1.656000 0
154260.672000 499168.438000 0.879000 0
154260.609000 499169.344000 0.585000 0
154260.203000 499169.500000 1.215000 0
154260.359000 499170.094000 1.939000 0
154260.969000 499170.688000 1.420000 0
154261.547000 499170.125000 1.199000 0
154262.297000 499169.688000 1.179000 0
154263.094000 499170.156000 0.839000 0
154263.766000 499169.719000 1.155000 0
154262.750000 499170.188000 0.315000 0
154262.875000 499170.656000 0.663000 0
154263.531000 499170.219000 0.579000 0
154263.438000 499169.875000 0.603000 0
154262.500000 499169.219000 1.798000 0
154263.031000 499169.875000 1.134000 0
154262.844000 499169.188000 1.195000 0
154262.313000 499168.531000 0.720000 0
154262.469000 499167.750000 1.291000 0
154263.313000 499167.969000 1.403000 0
154263.391000 499167.000000 1.629000 0
154263.031000 499166.938000 1.491000 0
154262.594000 499166.656000 0.755000 0
154261.891000 499166.938000 0.289000 0
154262.047000 499167.500000 -0.166000 0
154261.266000 499167.469000 -0.666000 0
154262.828000 499167.563000 0.193000 0
154261.953000 499167.156000 -0.142000 0
154261.672000 499167.344000 0.417000 0
154261.547000 499166.844000 0.036000 0
154262.172000 499166.656000 0.188000 0
154262.828000 499166.125000 1.290000 0
154262.531000 499166.438000 1.183000 0
154263.859000 499167.313000 1.306000 0
154263.344000 499168.125000 0.833000 0
154263.625000 499167.906000 1.031000 0
154263.578000 499167.688000 1.440000 0
154263.141000 499167.313000 1.636000 0
154262.766000 499167.344000 0.625000 0
154262.781000 499167.375000 1.825000 0
154262.859000 499167.688000 1.661000 0
154262.484000 499167.813000 0.412000 0
154262.188000 499168.031000 0.401000 0
154263.094000 499168.563000 1.039000 0
154262.906000 499169.438000 1.000000 0
154262.719000 499170.031000 0.902000 0
154262.234000 499169.500000 1.607000 0
154262.063000 499170.531000 1.004000 0
154262.281000 499171.344000 1.268000 0
154262.422000 499171.875000 1.938000 0
154262.906000 499172.031000 2.757000 0
154263.391000 499172.625000 2.195000 0
154264.078000 499172.281000 2.554000 0
154264.828000 499172.469000 1.939000 0
154265.250000 499172.563000 2.147000 0
154264.609000 499172.938000 2.263000 0
154264.688000 499171.906000 2.404000 0
154263.938000 499171.781000 3.002000 0
154264.500000 499171.219000 3.569000 0
154263.750000 499171.063000 4.198000 0
154263.031000 499171.219000 4.496000 0
154263.594000 499172.031000 4.471000 0
154263.328000 499172.375000 3.656000 0
154262.609000 499172.563000 4.041000 0
154262.297000 499172.938000 3.256000 0
154262.891000 499173.625000 2.917000 0
154263.453000 499174.125000 2.460000 0
154263.625000 499173.500000 2.823000 0
154264.094000 499173.906000 3.599000 0
154264.672000 499174.563000 3.991000 0
154264.344000 499174.844000 4.229000 0
154263.719000 499175.094000 4.386000 0
154263.703000 499175.031000 5.224000 0
154263.563000 499174.500000 5.935000 0
154263.891000 499174.500000 6.870000 0
154263.344000 499173.688000 6.763000 0
154263.547000 499173.156000 6.035000 0
154263.688000 499172.375000 6.561000 0
154264.375000 499172.000000 5.951000 0
154264.859000 499172.563000 6.540000 0
154264.688000 499171.875000 6.568000 0
154264.750000 499172.156000 6.411000 0
154264.438000 499172.250000 5.626000 0
154264.313000 499173.188000 5.323000 0
154264.969000 499172.969000 4.607000 0
154264.469000 499173.781000 5.976000 0
154264.641000 499174.438000 5.820000 0
154264.438000 499175.188000 6.389000 0
154265.141000 499174.906000 6.147000 0
154264.594000 499174.219000 6.153000 0
154264.016000 499173.656000 4.946000 0
154264.766000 499173.469000 4.973000 0
154264.563000 499172.688000 4.787000 0
154264.672000 499171.875000 4.412000 0
154264.313000 499171.750000 6.267000 0
154264.047000 499172.156000 6.529000 0
154264.250000 499172.938000 6.612000 0
154264.328000 499173.250000 6.530000 0
154263.781000 499172.719000 6.613000 0
154263.875000 499173.031000 6.471000 0
154262.578000 499174.031000 6.550000 0
154262.391000 499174.938000 6.369000 0
154261.641000 499174.938000 5.767000 0
154262.031000 499174.750000 4.913000 0
154262.750000 499174.656000 5.311000 0
154261.828000 499173.969000 4.758000 0
154262.078000 499173.781000 3.939000 0
154262.641000 499174.281000 4.154000 0
154262.313000 499174.625000 3.302000 0
154261.578000 499174.719000 2.873000 0
154260.734000 499174.406000 3.126000 0
154260.578000 499173.813000 3.582000 0
154261.016000 499173.813000 3.363000 0
154261.125000 499173.000000 3.023000 0
154261.391000 499172.281000 3.026000 0
154261.031000 499172.656000 3.096000 0
154260.391000 499174.219000 3.035000 0
154260.656000 499174.094000 3.295000 0
154260.500000 499174.594000 3.092000 0
154260.828000 499174.750000 3.161000 0
154261.375000 499173.969000 2.759000 0
154261.813000 499173.875000 2.273000 0
154262.625000 499174.250000 1.866000 0
154261.188000 499174.469000 3.129000 0
154261.922000 499174.344000 2.613000 0
154262.344000 499174.781000 2.663000 0
154262.031000 499174.719000 2.760000 0
154263.078000 499174.344000 4.017000 0
154261.672000 499173.313000 5.027000 0
154261.781000 499172.625000 4.698000 0
154262.359000 499173.188000 5.193000 0
154261.875000 499172.969000 4.840000 0
154261.984000 499173.406000 4.965000 0
154261.750000 499173.656000 4.924000 0
154262.078000 499173.719000 4.816000 0
154262.328000 499174.688000 4.532000 0
154262.000000 499174.594000 5.488000 0
154262.344000 499175.875000 6.273000 0
154262.625000 499175.844000 5.922000 0
154262.547000 499175.500000 6.970000 0
154262.750000 499174.656000 7.355000 0
154262.891000 499175.219000 6.962000 0
154262.125000 499175.063000 7.007000 0
154262.203000 499175.375000 6.865000 0
154262.922000 499175.344000 6.266000 0
154262.250000 499175.531000 6.319000 0
154262.313000 499174.625000 6.541000 0
154263.234000 499173.281000 6.615000 0
154262.938000 499173.813000 6.774000 0
154264.047000 499173.750000 6.421000 0
154263.063000 499174.281000 7.001000 0
154263.234000 499174.969000 6.971000 0
154264.344000 499174.875000 6.542000 0
154263.563000 499174.500000 6.974000 0
154264.250000 499174.531000 6.561000 0
154263.797000 499174.094000 6.714000 0
154262.703000 499174.469000 5.833000 0
154263.109000 499174.469000 6.576000 0
154263.703000 499175.063000 6.461000 0
154264.109000 499174.000000 5.998000 0
154263.781000 499174.094000 5.652000 0
154263.922000 499174.625000 6.227000 0
154262.938000 499175.406000 5.425000 0
154264.000000 499174.906000 5.980000 0
154263.234000 499174.969000 5.876000 0
154263.406000 499175.594000 5.632000 0
154263.328000 499175.281000 5.739000 0
154263.219000 499174.875000 4.517000 0
154263.938000 499174.688000 4.116000 0
154263.844000 499174.313000 4.128000 0
154264.547000 499174.094000 3.581000 0
154264.469000 499173.813000 3.872000 0
154264.188000 499174.281000 3.600000 0
154263.063000 499174.281000 2.717000 0
154261.703000 499172.313000 2.858000 0
154261.500000 499172.719000 2.004000 0
154261.156000 499173.156000 1.417000 0
154261.500000 499172.719000 3.138000 0
154262.422000 499173.469000 2.717000 0
154262.328000 499173.063000 2.514000 0
154261.875000 499172.969000 3.682000 0
154262.484000 499172.094000 4.642000 0
154264.438000 499172.219000 4.421000 0
154264.109000 499172.406000 3.924000 0
154263.797000 499172.813000 4.658000 0
154264.031000 499172.156000 4.146000 0
154263.328000 499172.375000 4.758000 0
154263.234000 499172.000000 4.702000 0
154262.875000 499171.906000 4.626000 0
154263.313000 499170.938000 4.365000 0
154263.375000 499171.188000 3.936000 0
154264.500000 499171.188000 4.454000 0
154264.375000 499170.750000 4.142000 0
154264.125000 499171.031000 4.074000 0
154264.828000 499170.938000 3.748000 0
154263.438000 499171.406000 3.674000 0
154264.422000 499172.188000 2.132000 0
154263.250000 499173.344000 2.382000 0
154263.688000 499172.375000 2.217000 0
154263.422000 499171.375000 2.538000 0
154263.656000 499172.281000 3.049000 0
154262.656000 499172.750000 2.402000 0
154263.047000 499172.563000 3.383000 0
154263.578000 499171.938000 3.104000 0
154263.203000 499171.875000 2.157000 0
154262.188000 499172.563000 2.045000 0
154262.234000 499171.156000 1.788000 0
154261.844000 499171.250000 1.360000 0
154261.750000 499170.875000 1.312000 0
154261.672000 499170.563000 1.479000 0
154261.188000 499170.375000 1.222000 0
154261.313000 499170.844000 1.559000 0
154261.063000 499171.063000 1.470000 0
154261.094000 499170.031000 1.281000 0
154259.656000 499170.313000 1.421000 0
154258.969000 499170.406000 1.971000 0
154258.875000 499171.094000 1.736000 0
154258.469000 499171.344000 2.244000 0
154258.359000 499172.000000 1.890000 0
154258.797000 499170.781000 1.897000 0
154259.203000 499169.656000 1.098000 0
154261.047000 499169.844000 1.913000 0
154260.531000 499170.750000 1.740000 0
154260.203000 499170.750000 1.740000 0
154260.313000 499169.906000 2.478000 0
154259.984000 499169.875000 2.303000 0
154260.156000 499170.531000 2.146000 0
154260.750000 499169.813000 2.101000 0
154260.063000 499170.156000 2.130000 0
154260.813000 499170.063000 1.661000 0
154259.531000 499169.813000 1.057000 0
154260.391000 499170.219000 1.196000 0
154260.625000 499169.406000 1.800000 0
154260.859000 499169.125000 0.803000 0
154260.453000 499168.719000 0.823000 0
154260.453000 499167.594000 1.622000 0
154261.172000 499167.094000 0.385000 0
154261.281000 499167.531000 0.606000 0
154260.641000 499166.688000 1.697000 0
154260.875000 499167.563000 1.238000 0
154260.688000 499166.875000 1.179000 0
154260.813000 499167.313000 1.564000 0
154260.531000 499166.250000 1.581000 0
154261.078000 499166.781000 1.524000 0
154260.891000 499166.063000 1.667000 0
154261.406000 499166.375000 0.707000 0
154260.938000 499166.250000 1.127000 0
154261.094000 499165.125000 1.361000 0
154261.266000 499165.813000 1.200000 0
154261.109000 499165.188000 0.399000 0
154261.594000 499165.781000 1.081000 0
154261.406000 499165.094000 1.120000 0
154261.641000 499165.938000 0.462000 0
154261.719000 499164.938000 0.297000 0
154261.859000 499165.406000 0.692000 0
154262.891000 499165.094000 1.254000 0
154262.516000 499164.938000 0.980000 0
154263.719000 499165.250000 1.563000 0
154263.563000 499164.688000 1.111000 0
154263.266000 499165.031000 1.070000 0
154264.000000 499165.063000 1.258000 0
154263.172000 499166.188000 1.417000 0
154263.219000 499166.375000 0.784000 0
154264.078000 499165.375000 1.115000 0
154263.531000 499166.031000 0.804000 0
154264.250000 499166.063000 1.060000 0
154264.016000 499166.438000 0.776000 0
154264.359000 499166.469000 1.159000 0
154264.172000 499167.000000 -0.738000 0
154264.719000 499166.688000 -1.496000 0
154264.250000 499167.281000 -1.892000 0
154264.688000 499167.719000 -1.527000 0
154264.969000 499167.594000 -0.853000 0
154265.688000 499167.500000 -0.367000 0
154265.563000 499168.438000 -0.674000 0
154266.141000 499169.219000 -0.561000 0
154266.328000 499168.563000 -0.015000 0
154266.516000 499169.281000 -1.068000 0
154267.203000 499168.906000 -1.424000 0
154267.469000 499168.531000 -2.231000 0
154267.578000 499169.000000 -3.025000 0
154267.750000 499168.156000 -3.165000 0
154266.969000 499167.969000 -3.049000 0
154268.391000 499167.688000 -3.101000 0
154268.625000 499168.531000 -2.702000 0
154269.281000 499168.188000 -3.334000 0
154268.422000 499169.406000 -2.510000 0
154269.203000 499169.344000 -2.250000 0
154268.813000 499169.250000 -1.598000 0
154269.469000 499168.875000 -1.279000 0
154270.156000 499168.344000 -1.231000 0
154270.328000 499167.656000 -0.973000 0
154269.859000 499167.250000 -0.292000 0
154270.078000 499166.656000 -0.577000 0
154269.531000 499165.969000 -0.833000 0
154269.656000 499166.438000 -1.679000 0
154269.422000 499167.313000 -1.532000 0
154268.688000 499167.375000 -1.707000 0
154267.875000 499167.281000 -1.288000 0
154267.313000 499167.938000 -0.796000 0
154266.531000 499167.906000 -1.071000 0
154266.750000 499167.156000 -1.067000 0
154266.141000 499166.438000 -1.181000 0
154265.563000 499165.656000 -1.271000 0
154265.656000 499166.031000 -2.190000 0
154266.219000 499166.750000 -2.507000 0
154266.563000 499166.469000 -2.141000 0
154265.125000 499165.375000 -2.293000 0
154264.266000 499164.969000 -2.200000 0
154264.906000 499164.500000 -1.707000 0
154265.672000 499164.656000 -1.278000 0
154266.453000 499164.656000 -0.875000 0
154266.953000 499165.125000 -0.196000 0
154267.516000 499164.313000 -0.068000 0
154267.688000 499163.563000 -0.201000 0
154267.984000 499163.250000 -0.928000 0
154268.141000 499163.844000 -1.240000 0
154267.953000 499164.625000 -1.377000 0
154267.172000 499164.625000 -1.634000 0
154268.500000 499165.188000 -1.598000 0
154267.797000 499165.375000 -1.393000 0
154268.359000 499166.125000 -1.124000 0
154268.422000 499166.344000 -1.613000 0
154267.547000 499164.469000 -1.848000 0
154267.688000 499165.000000 -1.318000 0
154268.313000 499164.500000 -1.523000 0
154267.859000 499164.219000 -1.569000 0
154268.063000 499163.531000 -1.145000 0
154267.719000 499163.688000 -0.904000 0
154266.938000 499165.031000 -1.618000 0
154266.828000 499164.625000 -1.699000 0
154267.109000 499164.375000 -1.397000 0
154266.656000 499164.000000 -1.359000 0
154266.094000 499163.313000 -1.704000 0
154265.734000 499163.281000 -0.991000 0
154266.359000 499162.875000 -0.406000 0
154266.547000 499162.281000 -1.059000 0
154265.766000 499162.063000 -1.280000 0
154265.938000 499161.219000 -1.164000 0
154266.531000 499160.563000 -1.535000 0
154267.156000 499160.125000 -1.440000 0
154267.484000 499159.938000 -2.044000 0
154266.703000 499159.813000 -2.625000 0
154266.047000 499160.344000 -2.474000 0
154265.875000 499159.750000 -3.212000 0
154265.078000 499159.469000 -3.492000 0
154265.734000 499159.219000 -2.783000 0
154265.250000 499158.656000 -2.315000 0
154265.359000 499159.063000 -2.221000 0
154266.078000 499158.844000 -2.343000 0
154266.844000 499158.906000 -1.904000 0
154265.453000 499159.406000 -3.366000 0
154265.781000 499159.344000 -3.319000 0
154266.125000 499160.688000 -2.572000 0
154266.547000 499159.250000 -2.252000 0
154266.250000 499159.531000 -2.520000 0
154266.406000 499160.125000 -2.865000 0
154266.766000 499160.094000 -2.972000 0
154266.313000 499159.781000 -2.797000 0
154266.625000 499159.531000 -2.520000 0
154266.922000 499159.188000 -2.196000 0
154267.141000 499160.031000 -2.850000 0
154267.719000 499159.094000 -2.083000 0
154267.828000 499159.500000 -1.996000 0
154267.031000 499159.594000 -1.006000 0
154267.438000 499159.781000 -1.478000 0
154266.891000 499160.594000 -1.525000 0
154266.266000 499161.219000 -1.033000 0
154265.609000 499161.469000 -0.770000 0
154265.813000 499162.219000 -1.743000 0
154265.672000 499161.719000 -1.134000 0
154265.422000 499162.125000 -1.270000 0
154266.047000 499161.656000 -0.894000 0
154266.359000 499161.531000 -1.078000 0
154266.109000 499161.875000 -1.325000 0
154266.469000 499161.938000 -1.000000 0
154266.219000 499162.313000 -1.084000 0
154265.109000 499163.938000 -0.826000 0
154264.984000 499163.438000 -0.198000 0
154265.516000 499162.469000 -1.228000 0
154265.016000 499163.563000 -0.889000 0
154266.031000 499163.031000 -0.327000 0
154265.234000 499162.969000 -0.812000 0
154265.797000 499163.563000 -2.303000 0
154265.547000 499164.156000 -2.712000 0
154265.625000 499164.531000 -2.710000 0
154265.438000 499163.781000 -2.754000 0
154264.938000 499163.281000 -2.796000 0
154264.734000 499162.500000 -3.010000 0
154264.469000 499162.875000 -3.257000 0
154265.375000 499163.531000 -2.439000 0
154266.438000 499163.125000 -1.834000 0
154266.188000 499163.688000 -0.613000 0
154266.781000 499163.156000 -1.731000 0
154266.172000 499163.594000 -1.884000 0
154266.516000 499163.438000 -1.933000 0
154266.406000 499164.500000 -0.302000 0
154266.500000 499164.844000 -1.324000 0
154266.313000 499164.125000 -1.354000 0
154265.516000 499164.094000 -0.720000 0
154266.031000 499164.406000 -0.834000 0
154265.609000 499164.406000 -0.935000 0
154265.156000 499164.094000 -1.456000 0
154265.234000 499164.438000 -1.627000 0
154263.625000 499164.906000 -2.683000 0
154263.031000 499165.625000 -2.507000 0
154263.500000 499165.938000 -1.710000 0
154263.906000 499165.969000 -1.558000 0
154263.188000 499164.781000 -3.005000 0
154262.516000 499164.969000 -3.441000 0
154261.969000 499164.281000 -3.084000 0
154261.844000 499163.813000 -2.324000 0
154262.422000 499163.313000 -1.920000 0
154262.047000 499163.219000 -1.007000 0
154262.703000 499162.938000 -0.823000 0
154262.719000 499162.969000 -1.817000 0
154262.344000 499163.063000 -1.555000 0
154261.813000 499163.688000 -1.547000 0
154262.141000 499163.531000 -2.112000 0
154261.484000 499164.000000 -2.478000 0
154261.547000 499164.250000 -2.836000 0
154261.578000 499164.406000 -3.330000 0
154261.891000 499164.031000 -2.801000 0
154262.031000 499164.531000 -3.350000 0
154262.234000 499165.313000 -3.333000 0
154262.125000 499164.906000 -3.460000 0
154262.859000 499165.000000 -3.354000 0
154263.688000 499165.156000 -3.054000 0
154263.859000 499164.594000 -2.283000 0
154264.188000 499164.656000 -2.047000 0
154263.953000 499164.906000 -2.343000 0
154264.344000 499165.250000 -2.486000 0
154265.734000 499164.938000 -2.553000 0
154264.984000 499164.813000 -2.828000 0
154265.375000 499164.938000 -2.277000 0
154266.438000 499166.000000 -2.403000 0
154266.141000 499166.438000 -2.448000 0
154266.031000 499166.063000 -2.396000 0
154265.953000 499165.750000 -2.239000 0
154265.438000 499165.188000 -0.415000 0
154265.156000 499165.469000 0.218000 0
154266.156000 499164.938000 -1.411000 0
154265.531000 499165.500000 -0.535000 0
154265.859000 499165.406000 -1.163000 0
154265.922000 499165.625000 -1.624000 0
154265.625000 499165.875000 -1.572000 0
154265.813000 499166.594000 -1.660000 0
154266.500000 499166.188000 -0.823000 0
154266.078000 499166.219000 -0.797000 0
154266.719000 499167.031000 -0.501000 0
154266.672000 499166.875000 0.222000 0
154266.875000 499167.656000 -0.708000 0
154267.563000 499167.406000 -0.877000 0
154268.297000 499167.281000 -2.058000 0
154269.031000 499167.250000 -1.714000 0
154269.016000 499165.813000 -1.703000 0
154268.875000 499166.656000 -1.428000 0
154268.797000 499166.313000 -1.337000 0
154269.141000 499166.250000 -1.375000 0
154269.797000 499165.625000 -0.462000 0
154269.969000 499166.250000 -0.669000 0
154269.359000 499167.031000 -0.204000 0
154269.813000 499167.031000 0.114000 0
154269.859000 499167.219000 -1.351000 0
154270.219000 499167.219000 -1.086000 0
154270.047000 499167.969000 -1.342000 0
154270.219000 499168.625000 -1.566000 0
154269.641000 499168.125000 -1.297000 0
154269.688000 499168.344000 -1.708000 0
154269.813000 499168.781000 -1.560000 0
154269.141000 499169.125000 -1.758000 0
154268.875000 499169.469000 -1.941000 0
154268.828000 499167.938000 -2.118000 0
154268.953000 499168.406000 -2.922000 0
154269.219000 499167.938000 -2.975000 0
154268.844000 499168.000000 -2.993000 0
154268.484000 499167.969000 -3.210000 0
154267.984000 499167.719000 -3.197000 0
154268.094000 499168.125000 -3.147000 0
154266.813000 499169.031000 -3.060000 0
154268.063000 499169.344000 -2.776000 0
154267.969000 499168.969000 -2.816000 0
154267.156000 499168.719000 -2.979000 0
154267.875000 499168.625000 -2.869000 0
154267.500000 499168.656000 -2.930000 0
154267.094000 499168.469000 -2.703000 0
154267.859000 499168.563000 -1.945000 0
154267.375000 499168.156000 -1.261000 0
154267.313000 499169.313000 -1.223000 0
154266.250000 499169.625000 -0.451000 0
154266.453000 499169.031000 -0.776000 0
154266.391000 499168.781000 -0.421000 0
154266.000000 499168.688000 -0.022000 0
154266.031000 499168.781000 -0.755000 0
154265.813000 499166.625000 -0.421000 0
154266.422000 499167.469000 -0.301000 0
154266.094000 499167.688000 -0.482000 0
154266.016000 499167.375000 -0.388000 0
154265.750000 499167.750000 -0.597000 0
154265.359000 499167.656000 -0.788000 0
154265.031000 499167.813000 -1.320000 0
154264.344000 499167.656000 -1.886000 0
154265.391000 499166.344000 -1.512000 0
154264.297000 499166.250000 -1.575000 0
154264.594000 499167.375000 -1.389000 0
154263.922000 499167.531000 -0.219000 0
154264.281000 499167.406000 -0.522000 0
154265.297000 499167.406000 -0.439000 0
154264.594000 499167.313000 -0.576000 0
154264.188000 499167.031000 0.534000 0
154264.406000 499166.625000 0.714000 0
154265.500000 499166.781000 -0.221000 0
154264.906000 499167.344000 -0.510000 0
154265.156000 499166.906000 0.164000 0
154264.844000 499167.156000 -0.097000 0
154265.391000 499166.344000 -0.402000 0
154264.156000 499165.656000 -1.227000 0
154265.234000 499165.750000 0.003000 0
154264.266000 499166.125000 -0.862000 0
154264.953000 499166.094000 -0.138000 0
154264.609000 499166.219000 -0.595000 0
154263.375000 499165.469000 0.182000 0
154264.750000 499165.313000 -0.238000 0
154263.781000 499165.531000 -0.842000 0
154264.406000 499165.438000 0.280000 0
154263.781000 499165.500000 0.219000 0
154264.734000 499163.906000 -1.285000 0
154263.094000 499164.406000 -0.860000 0
154262.688000 499164.344000 -1.001000 0
154262.922000 499163.719000 0.385000 0
154262.641000 499164.188000 -0.349000 0
154263.500000 499164.438000 -0.886000 0
154263.938000 499164.875000 -0.425000 0
154263.828000 499164.438000 -0.623000 0
154263.594000 499164.813000 0.288000 0
154263.438000 499164.188000 0.561000 0
154263.063000 499164.281000 -0.100000 0
154263.313000 499163.750000 0.283000 0
154263.328000 499163.813000 -0.607000 0
154263.750000 499164.125000 -0.437000 0
154263.625000 499163.688000 0.331000 0
154263.703000 499163.938000 -0.053000 0
154264.156000 499163.063000 -0.474000 0
154263.766000 499163.000000 -0.555000 0
154263.641000 499162.500000 0.013000 0
154263.375000 499162.719000 -0.372000 0
154262.813000 499161.844000 0.156000 0
154263.313000 499162.438000 -0.085000 0
154262.688000 499161.375000 -0.246000 0
154263.516000 499160.625000 -0.328000 0
154262.906000 499160.938000 -0.256000 0
154263.688000 499161.281000 -0.569000 0
154263.750000 499161.531000 -0.804000 0
154262.859000 499162.000000 -2.723000 0
154263.094000 499161.656000 -2.460000 0
154263.188000 499162.031000 -2.450000 0
154264.781000 499162.656000 -1.392000 0
154263.828000 499161.813000 -2.109000 0
154263.906000 499162.125000 -2.149000 0
154265.063000 499162.344000 -1.589000 0
154264.188000 499161.781000 -2.171000 0
154264.656000 499162.219000 -1.707000 0
154264.969000 499162.000000 -1.578000 0
154264.563000 499161.844000 -1.765000 0
154263.766000 499161.625000 -1.590000 0
154263.563000 499160.781000 -0.854000 0
154263.938000 499160.844000 -0.597000 0
154264.031000 499161.188000 -0.750000 0
154264.063000 499161.344000 -1.315000 0
154264.344000 499159.625000 -1.087000 0
154264.141000 499160.250000 -0.993000 0
154264.438000 499159.969000 -1.181000 0
154264.719000 499161.031000 -1.292000 0
154265.219000 499161.313000 -1.416000 0
154264.813000 499159.781000 -1.607000 0
154265.797000 499160.719000 -1.578000 0
154265.469000 499159.469000 -2.106000 0
154266.750000 499160.000000 -1.112000 0
154265.719000 499159.125000 -1.933000 0
154266.563000 499159.313000 -0.946000 0
154266.641000 499159.625000 -1.172000 0
154265.719000 499160.406000 -1.450000 0
154266.047000 499160.344000 -1.411000 0
154265.609000 499159.969000 -1.649000 0
154265.984000 499160.094000 -1.094000 0
154266.203000 499159.281000 -0.961000 0
154264.766000 499159.594000 -1.120000 0
154264.703000 499159.344000 -0.727000 0
154265.094000 499159.500000 -1.296000 0
154264.594000 499158.938000 -1.046000 0
154265.250000 499158.625000 -1.384000 0
154264.469000 499158.469000 -1.280000 0
154264.688000 499157.938000 -0.444000 0
154263.891000 499157.875000 0.201000 0
154264.797000 499158.344000 -0.224000 0
154263.578000 499158.063000 -0.041000 0
154263.984000 499158.219000 0.221000 0
154264.094000 499158.656000 -0.712000 0
154263.375000 499158.719000 0.393000 0
154263.688000 499158.563000 -0.723000 0
154264.016000 499159.750000 -0.307000 0
154263.391000 499158.719000 -0.636000 0
154263.250000 499159.656000 -0.025000 0
154263.172000 499159.344000 0.134000 0
154263.859000 499159.156000 0.003000 0
154264.047000 499159.875000 -1.106000 0
154263.594000 499159.500000 -0.432000 0
154262.266000 499159.750000 -0.737000 0
154262.563000 499159.625000 -0.834000 0
154263.000000 499158.656000 -0.778000 0
154262.344000 499158.781000 -0.247000 0
154262.625000 499158.656000 -0.605000 0
154262.688000 499158.906000 -0.956000 0
154261.781000 499157.938000 -0.738000 0
154260.906000 499158.844000 -0.117000 0
154260.391000 499158.281000 -0.551000 0
154259.969000 499158.250000 -1.195000 0
154259.875000 499159.219000 -1.191000 0
154259.516000 499159.156000 -1.254000 0
154259.266000 499159.844000 -0.674000 0
154258.891000 499160.000000 -0.002000 0
154258.969000 499160.313000 -0.225000 0
154259.344000 499160.188000 -0.776000 0
154260.078000 499158.688000 -1.029000 0
154260.797000 499158.438000 -0.145000 0
154261.500000 499158.313000 1.370000 0
154262.063000 499158.969000 0.219000 0
154262.188000 499158.156000 0.139000 0
154262.109000 499157.906000 0.375000 0
154261.672000 499159.000000 0.362000 0
154261.922000 499158.406000 0.679000 0
154261.594000 499158.656000 0.431000 0
154260.984000 499157.844000 0.039000 0
154261.344000 499157.719000 0.730000 0
154260.656000 499157.875000 1.376000 0
154259.672000 499158.438000 0.822000 0
154258.953000 499158.688000 1.044000 0
154258.078000 499158.531000 1.431000 0
154258.500000 499158.500000 2.001000 0
154257.969000 499158.125000 1.378000 0
154258.625000 499159.000000 0.315000 0
154258.281000 499159.281000 0.400000 0
154258.797000 499158.063000 1.389000 0
154260.547000 499158.844000 0.023000 0
154259.141000 499159.406000 0.003000 0
154260.219000 499159.219000 -0.569000 0
154259.469000 499158.969000 0.369000 0
154259.813000 499159.000000 0.332000 0
154259.563000 499159.313000 0.212000 0
154259.656000 499159.656000 0.180000 0
154261.094000 499159.531000 -0.172000 0
154261.172000 499159.875000 -0.282000 0
154259.719000 499159.938000 0.011000 0
154259.859000 499160.406000 0.289000 0
154260.875000 499160.156000 -0.462000 0
154260.734000 499159.563000 -0.020000 0
154260.219000 499160.500000 0.411000 0
154259.750000 499161.688000 0.449000 0
154259.063000 499162.281000 0.761000 0
154259.063000 499162.313000 -0.197000 0
154258.609000 499161.719000 -0.717000 0
154257.781000 499161.531000 -1.134000 0
154256.984000 499161.188000 -1.494000 0
154256.969000 499161.188000 -0.527000 0
154256.859000 499160.719000 -0.761000 0
154257.344000 499161.531000 -2.051000 0
154257.578000 499160.750000 -2.432000 0
154257.906000 499160.781000 -3.332000 0
154258.641000 499160.719000 -2.912000 0
154257.828000 499160.500000 -3.142000 0
154257.797000 499161.563000 -2.141000 0
154256.609000 499161.438000 -1.224000 0
154257.266000 499161.219000 -1.785000 0
154257.266000 499161.188000 -0.905000 0
154258.094000 499161.500000 -1.196000 0
154259.563000 499162.594000 -0.832000 0
154259.578000 499162.656000 -1.607000 0
154259.109000 499162.469000 -0.867000 0
154258.422000 499162.719000 1.296000 0
154257.547000 499162.281000 1.313000 0
154256.781000 499162.125000 1.840000 0
154256.984000 499162.844000 2.018000 0
154257.516000 499163.281000 1.446000 0
154257.891000 499163.563000 1.857000 0
154257.453000 499163.000000 1.690000 0
154256.875000 499162.406000 1.745000 0
154257.594000 499162.469000 0.783000 0
154257.516000 499163.219000 0.297000 0
154257.219000 499163.750000 0.407000 0
154256.578000 499164.188000 0.022000 0
154257.422000 499162.875000 0.304000 0
154257.797000 499163.188000 1.753000 0
154258.250000 499163.281000 1.848000 0
154258.547000 499163.188000 1.619000 0
154258.141000 499162.875000 1.759000 0
154258.359000 499162.469000 1.715000 0
154259.141000 499162.563000 1.600000 0
154258.703000 499162.094000 1.374000 0
154259.297000 499161.563000 1.482000 0
154259.547000 499162.531000 1.228000 0
154259.359000 499161.813000 1.166000 0
154260.609000 499160.656000 0.497000 0
154260.328000 499160.969000 0.785000 0
154261.797000 499160.938000 -0.299000 0
154261.891000 499161.281000 0.730000 0
154260.672000 499160.906000 0.175000 0
154261.453000 499160.938000 -0.262000 0
154261.906000 499161.375000 -0.099000 0
154261.594000 499161.438000 0.129000 0
154261.141000 499161.125000 0.265000 0
154261.656000 499161.688000 -0.146000 0
154261.297000 499161.719000 -0.125000 0
154260.656000 499162.219000 -0.965000 0
154261.359000 499162.000000 -0.311000 0
154260.906000 499161.813000 -0.385000 0
154260.594000 499162.000000 -0.471000 0
154260.297000 499162.125000 -0.066000 0
154260.344000 499162.313000 -0.547000 0
154260.813000 499162.781000 -0.366000 0
154260.734000 499162.531000 -0.036000 0
154259.969000 499162.563000 -0.150000 0
154259.938000 499162.438000 0.625000 0
154259.297000 499163.188000 1.231000 0
154258.969000 499163.063000 1.032000 0
154260.109000 499163.094000 0.234000 0
154259.750000 499164.875000 -0.019000 0
154260.234000 499165.125000 -0.797000 0
154259.781000 499165.063000 -0.608000 0
154260.172000 499164.906000 -0.417000 0
154259.750000 499163.281000 0.289000 0
154260.125000 499164.688000 0.151000 0
154260.297000 499163.781000 0.193000 0
154259.844000 499163.656000 0.276000 0
154259.656000 499164.563000 0.146000 0
154260.500000 499164.531000 1.361000 0
154260.078000 499164.531000 0.771000 0
154259.063000 499163.438000 1.146000 0
154259.578000 499164.250000 1.284000 0
154259.484000 499163.875000 1.257000 0
154258.422000 499163.969000 1.911000 0
154259.266000 499164.219000 1.303000 0
154259.375000 499164.625000 1.476000 0
154258.938000 499164.656000 1.737000 0
154258.813000 499165.438000 1.864000 0
154259.016000 499165.000000 1.656000 0
154257.938000 499163.750000 1.435000 0
154258.625000 499164.688000 1.811000 0
154258.500000 499164.250000 1.551000 0
154258.109000 499164.406000 1.035000 0
154257.500000 499164.813000 1.527000 0
154257.234000 499163.813000 1.695000 0
154257.438000 499164.563000 1.789000 0
154257.359000 499164.281000 1.984000 0
154257.094000 499163.281000 2.162000 0
154255.906000 499162.656000 1.869000 0
154256.406000 499163.531000 2.345000 0
154256.297000 499163.125000 2.295000 0
154256.078000 499163.281000 1.596000 0
154255.750000 499163.594000 2.213000 0
154254.953000 499163.563000 1.596000 0
154255.047000 499163.938000 1.737000 0
154254.250000 499163.469000 1.113000 0
154253.953000 499163.875000 0.722000 0
154254.328000 499163.781000 -0.032000 0
154254.281000 499163.594000 0.502000 0
154254.625000 499163.313000 0.827000 0
154254.672000 499163.563000 0.580000 0
154254.609000 499163.313000 -0.132000 0
154255.391000 499162.219000 0.341000 0
154254.281000 499162.031000 -0.808000 0
154254.344000 499162.313000 -1.085000 0
154254.641000 499162.406000 -0.839000 0
154254.766000 499162.844000 -0.554000 0
154255.078000 499162.469000 -0.476000 0
154254.109000 499162.906000 0.511000 0
154253.797000 499161.719000 0.316000 0
154252.297000 499161.844000 -0.238000 0
154252.031000 499160.844000 -0.045000 0
154251.984000 499162.156000 0.393000 0
154252.188000 499162.938000 0.525000 0
154252.688000 499163.313000 1.045000 0
154251.906000 499163.344000 0.966000 0
154252.313000 499163.406000 0.934000 0
154251.750000 499162.781000 0.416000 0
154251.391000 499162.656000 -0.474000 0
154251.172000 499163.375000 -0.066000 0
154251.047000 499164.156000 0.315000 0
154251.016000 499164.031000 1.072000 0
154250.344000 499164.250000 1.656000 0
154250.266000 499163.969000 1.905000 0
154250.688000 499164.563000 1.695000 0
154250.578000 499164.156000 1.708000 0
154251.094000 499163.063000 -0.020000 0
154252.109000 499162.625000 0.795000 0
154252.656000 499161.750000 0.299000 0
154252.234000 499161.594000 0.138000 0
154252.578000 499161.406000 0.411000 0
154252.516000 499161.156000 0.659000 0
154253.203000 499161.031000 0.810000 0
154252.375000 499160.625000 1.185000 0
154252.719000 499159.219000 0.906000 0
154252.125000 499158.469000 1.190000 0
154252.813000 499158.000000 1.165000 0
154252.609000 499157.219000 1.005000 0
154253.156000 499156.719000 0.632000 0
154253.516000 499156.531000 0.070000 0
154252.969000 499157.031000 -0.533000 0
154253.109000 499157.563000 -1.166000 0
154252.609000 499157.219000 -0.130000 0
154252.688000 499157.469000 -0.328000 0
154253.297000 499157.250000 -0.922000 0
154253.031000 499157.313000 -0.808000 0
154253.250000 499157.094000 -0.398000 0
154254.219000 499156.250000 -0.017000 0
154254.984000 499156.281000 0.620000 0
154254.719000 499157.094000 0.484000 0
154255.297000 499156.438000 0.102000 0
154255.234000 499156.219000 0.585000 0
154254.000000 499155.406000 -0.482000 0
154254.750000 499155.406000 0.158000 0
154254.953000 499155.156000 -0.446000 0
154255.125000 499155.781000 -0.743000 0
154255.328000 499154.906000 -0.827000 0
154254.078000 499154.656000 -0.281000 0
154254.719000 499154.250000 0.182000 0
154254.063000 499154.563000 0.436000 0
154254.469000 499154.313000 0.098000 0
154253.516000 499155.094000 -0.586000 0
154253.813000 499154.688000 -1.395000 0
154253.156000 499155.125000 -1.944000 0
154252.703000 499154.969000 -1.261000 0
154252.234000 499154.250000 -1.197000 0
154252.875000 499154.063000 -1.937000 0
154253.016000 499153.188000 -1.744000 0
154253.766000 499153.469000 -1.681000 0
154254.234000 499153.438000 -1.355000 0
154251.875000 499154.438000 -1.933000 0
154252.500000 499154.250000 -1.325000 0
154252.313000 499154.563000 -1.302000 0
154253.609000 499153.906000 -1.665000 0
154253.375000 499154.563000 -2.111000 0
154253.875000 499153.875000 -1.618000 0
154253.000000 499154.531000 -1.560000 0
154253.141000 499155.063000 -1.015000 0
154254.313000 499155.531000 -0.909000 0
154254.156000 499154.969000 -0.465000 0
154253.922000 499155.094000 -0.272000 0
154254.875000 499155.875000 0.477000 0
154254.078000 499155.688000 -0.685000 0
154253.922000 499156.625000 -0.341000 0
154253.594000 499156.813000 -0.283000 0
154253.844000 499156.344000 -0.023000 0
154252.891000 499156.750000 0.817000 0
154252.984000 499157.094000 0.722000 0
154251.500000 499158.781000 1.430000 0
154252.375000 499157.875000 1.145000 0
154252.469000 499158.219000 1.095000 0
154251.797000 499158.406000 0.958000 0
154251.922000 499158.938000 0.443000 0
154251.891000 499158.781000 0.960000 0
154252.594000 499158.688000 1.416000 0
154252.234000 499158.906000 1.328000 0
154252.281000 499159.031000 0.808000 0
154252.656000 499158.969000 1.164000 0
154252.406000 499159.531000 1.134000 0
154253.406000 499160.250000 1.312000 0
154252.875000 499159.781000 1.436000 0
154253.313000 499159.906000 1.288000 0
154252.406000 499160.719000 0.411000 0
154252.422000 499159.625000 -0.658000 0
154254.094000 499158.688000 -1.106000 0
154254.734000 499158.188000 -1.660000 0
154255.016000 499158.250000 -1.416000 0
154254.438000 499158.594000 -1.933000 0
154253.781000 499159.094000 -2.033000 0
154253.313000 499159.875000 -1.917000 0
154252.719000 499159.219000 -2.355000 0
154252.609000 499158.781000 -1.546000 0
154252.219000 499158.813000 -2.027000 0
154253.453000 499160.438000 -2.367000 0
154253.234000 499161.188000 -2.040000 0
154253.969000 499159.875000 -2.034000 0
154253.094000 499159.063000 -2.160000 0
154253.844000 499159.375000 -2.312000 0
154253.484000 499159.063000 -2.063000 0
154253.719000 499158.875000 -1.743000 0
154253.125000 499159.188000 -0.866000 0
154252.500000 499158.375000 0.495000 0
154253.109000 499159.125000 0.186000 0
154252.891000 499158.281000 -0.240000 0
154253.031000 499158.781000 0.235000 0
154253.406000 499158.719000 0.203000 0
154253.313000 499157.344000 0.351000 0
154253.250000 499158.125000 0.457000 0
154254.406000 499158.469000 -0.212000 0
154253.984000 499158.281000 0.904000 0
154254.203000 499157.688000 0.686000 0
154254.047000 499158.531000 0.504000 0
154254.641000 499157.813000 0.425000 0
154254.375000 499158.344000 0.481000 0
154254.984000 499158.094000 0.345000 0
154254.594000 499159.188000 0.924000 0
154255.313000 499160.375000 1.642000 0
154255.234000 499160.063000 1.741000 0
154255.484000 499160.031000 1.688000 0
154254.734000 499159.750000 0.483000 0
154254.875000 499160.250000 0.975000 0
154255.328000 499160.438000 0.614000 0
154257.219000 499162.125000 1.238000 0
154256.875000 499160.781000 0.379000 0
154256.938000 499161.063000 0.229000 0
154257.094000 499161.625000 0.783000 0
154257.391000 499161.688000 0.523000 0
154258.078000 499161.438000 0.766000 0
154258.563000 499161.563000 -0.189000 0
154258.125000 499161.594000 0.120000 0
154258.813000 499161.344000 0.123000 0
154258.797000 499159.625000 1.000000 0
154258.750000 499161.094000 0.391000 0
154259.156000 499161.000000 0.850000 0
154259.094000 499160.781000 1.237000 0
154258.891000 499160.000000 1.054000 0
154258.453000 499161.094000 0.674000 0
154258.719000 499160.969000 1.138000 0
154258.000000 499161.094000 0.810000 0
154257.156000 499160.813000 0.138000 0
154258.359000 499160.781000 0.813000 0
154257.438000 499160.219000 0.389000 0
154257.625000 499160.906000 1.313000 0
154257.734000 499160.094000 1.158000 0
154255.875000 499159.656000 0.876000 0
154256.406000 499160.656000 0.776000 0
154256.078000 499160.438000 1.042000 0
154256.828000 499160.625000 0.960000 0
154255.984000 499160.125000 1.217000 0
154256.188000 499159.813000 1.386000 0
154256.297000 499160.281000 0.737000 0
154256.234000 499160.000000 1.005000 0
154255.578000 499158.563000 0.771000 0
154255.641000 499158.750000 0.430000 0
154255.641000 499157.781000 0.967000 0
154255.609000 499157.594000 1.466000 0
154256.563000 499158.531000 0.731000 0
154256.219000 499158.313000 0.583000 0
154256.172000 499158.125000 1.049000 0
154255.984000 499157.438000 1.135000 0
154256.125000 499156.844000 1.124000 0
154256.375000 499156.125000 0.989000 0
154256.891000 499156.875000 1.197000 0
154257.625000 499156.781000 1.649000 0
154257.313000 499156.750000 0.777000 0
154256.297000 499157.500000 0.860000 0
154255.719000 499156.375000 0.316000 0
154256.594000 499157.000000 0.422000 0
154255.844000 499156.875000 0.611000 0
154255.344000 499156.625000 -0.401000 0
154256.406000 499157.938000 -1.039000 0
