151945.453000 496223.750000 -0.224000 3
151945.297000 496224.375000 -0.516000 3
151945.672000 496222.844000 -0.054000 3
151945.594000 496223.156000 -0.240000 3
151945.328000 496222.844000 -0.073000 3
151944.828000 496223.250000 0.245000 3
151944.484000 496223.188000 -0.063000 3
151944.937000 496224.406000 -0.826000 3
151944.734000 496223.656000 -1.115000 3
151944.641000 496224.031000 -0.926000 3
151944.375000 496223.656000 -0.897000 3
151944.844000 496224.781000 -0.461000 3
151943.719000 496224.469000 0.003000 3
151943.641000 496224.781000 -0.091000 3
151944.453000 496224.750000 -0.358000 3
151943.281000 496224.656000 -1.011000 3
151943.203000 496224.969000 -1.153000 3
151943.578000 496225.000000 -0.703000 3
151943.516000 496225.250000 -1.225000 3
151943.672000 496224.625000 -0.974000 3
151944.406000 496224.969000 -0.958000 3
151944.250000 496225.594000 -1.323000 3
151944.703000 496225.344000 -1.218000 3
151944.187000 496225.844000 -1.732000 3
151944.562000 496225.938000 -1.493000 3
151944.484000 496226.281000 -1.511000 3
151946.359000 496226.469000 -0.968000 3
151946.125000 496227.406000 -1.120000 3
151945.344000 496227.406000 -0.538000 3
151944.812000 496228.125000 -0.170000 3
151945.453000 496228.813000 -0.472000 3
151946.297000 496228.469000 -0.696000 3
151947.078000 496228.219000 -0.973000 3
151947.922000 496228.000000 -1.263000 3
151947.609000 496227.469000 -1.946000 3
151946.937000 496227.281000 -1.808000 3
151947.359000 496227.094000 -1.653000 3
151948.094000 496228.719000 -1.213000 3
151948.578000 496229.469000 -1.628000 3
151947.844000 496229.719000 -1.034000 3
151948.031000 496230.406000 -1.649000 3
151947.266000 496230.594000 -1.525000 3
151946.594000 496230.188000 -0.920000 3
151945.875000 496230.156000 -0.363000 3
151945.984000 496231.063000 -0.703000 3
151946.594000 496231.563000 -1.079000 3
151946.453000 496232.094000 -1.811000 3
151945.891000 496231.469000 -2.349000 3
151945.516000 496231.594000 -1.513000 3
151944.937000 496230.938000 -1.689000 3
151944.641000 496230.281000 -1.178000 3
151944.969000 496230.813000 -0.438000 3
151944.875000 496231.156000 -0.331000 3
151943.906000 496229.969000 -0.774000 3
151943.312000 496229.344000 -0.450000 3
151942.594000 496228.969000 -0.489000 3
151942.234000 496228.844000 -1.360000 3
151942.781000 496228.219000 -1.013000 3
151943.656000 496228.000000 -0.771000 3
151943.469000 496227.281000 -1.288000 3
151943.906000 496227.000000 -0.890000 3
151944.281000 496227.094000 -0.435000 3
151943.766000 496227.563000 -1.415000 3
151943.828000 496227.313000 -1.002000 3
151943.937000 496228.406000 -0.676000 3
151943.594000 496228.250000 -1.342000 3
151943.922000 496228.531000 -1.895000 3
151944.531000 496229.219000 -1.658000 3
151944.125000 496229.063000 -2.226000 3
151943.391000 496227.625000 -1.160000 3
151943.297000 496227.938000 -0.932000 3
151943.234000 496228.219000 -1.378000 3
151942.562000 496229.125000 -1.398000 3
151942.844000 496229.813000 -1.561000 3
151942.469000 496229.500000 -1.137000 3
151942.703000 496228.563000 -0.832000 3
151943.109000 496228.688000 -0.592000 3
151943.484000 496228.719000 -0.598000 3
151942.984000 496229.250000 -0.889000 3
151943.406000 496229.031000 -0.525000 3
151943.187000 496229.906000 -1.144000 3
151943.250000 496229.625000 -0.922000 3
151944.062000 496229.344000 -0.429000 3
151944.547000 496229.156000 0.245000 3
151943.641000 496229.656000 -1.160000 3
151943.984000 496229.656000 -0.581000 3
151943.547000 496229.969000 -0.883000 3
151944.391000 496229.813000 -1.729000 3
151944.750000 496229.844000 -1.655000 3
151944.281000 496230.188000 -1.414000 3
151944.203000 496230.563000 -1.379000 3
151944.422000 496231.188000 -1.649000 3
151944.484000 496230.875000 -1.507000 3
151945.266000 496230.875000 -1.821000 3
151944.844000 496231.281000 -1.552000 3
151945.172000 496231.250000 -1.509000 3
151945.719000 496230.813000 -2.331000 3
151945.656000 496231.094000 -2.727000 3
151945.984000 496231.094000 -2.519000 3
151945.734000 496232.125000 -2.283000 3
151945.812000 496231.813000 -2.212000 3
151946.125000 496232.063000 -1.582000 3
151947.016000 496231.625000 -1.485000 3
151946.500000 496231.906000 -0.978000 3
151945.594000 496231.344000 -1.159000 3
151945.922000 496231.344000 -0.947000 3
151945.656000 496231.031000 -0.839000 3
151945.406000 496230.344000 -1.171000 3
151945.062000 496230.406000 -0.790000 3
151945.297000 496230.719000 -0.709000 3
151945.141000 496230.094000 -0.571000 3
151945.719000 496230.813000 -0.231000 3
151945.453000 496230.125000 -0.421000 3
151945.797000 496230.500000 -0.308000 3
151946.406000 496229.375000 -1.218000 3
151946.812000 496229.281000 -0.412000 3
151946.766000 496229.469000 -1.348000 3
151946.094000 496230.625000 -1.423000 3
151946.312000 496229.750000 -0.770000 3
151946.156000 496230.406000 -0.774000 3
151946.234000 496230.063000 -0.658000 3
151946.437000 496230.813000 -1.182000 3
151946.750000 496230.906000 -0.991000 3
151946.703000 496231.125000 -1.670000 3
151946.828000 496230.594000 -1.036000 3
151947.547000 496230.938000 -1.471000 3
151947.609000 496230.688000 -1.146000 3
151946.984000 496229.969000 -0.820000 3
151947.062000 496229.656000 -0.704000 3
151947.141000 496229.313000 -0.826000 3
151947.687000 496230.375000 -0.811000 3
151948.234000 496229.594000 -0.564000 3
151948.391000 496228.969000 -0.280000 3
151947.484000 496229.781000 -0.531000 3
151948.094000 496230.156000 -1.014000 3
151947.766000 496230.063000 -0.747000 3
151948.406000 496230.156000 -1.080000 3
151949.125000 496229.000000 -1.796000 3
151948.172000 496229.813000 -1.307000 3
151948.516000 496229.750000 -1.613000 3
151948.312000 496229.281000 -0.461000 3
151947.922000 496229.438000 -0.784000 3
151947.984000 496229.156000 -0.534000 3
151948.375000 496229.063000 -1.846000 3
151948.672000 496229.094000 -1.514000 3
151948.750000 496228.813000 -1.284000 3
151948.344000 496227.719000 -1.269000 3
151948.266000 496228.000000 -1.466000 3
151947.219000 496229.000000 -0.596000 3
151947.734000 496228.750000 -0.747000 3
151947.250000 496227.500000 -1.231000 3
151947.828000 496228.375000 -1.065000 3
151947.422000 496228.188000 -1.410000 3
151947.484000 496227.938000 -0.955000 3
151947.328000 496228.594000 -1.118000 3
151946.906000 496228.938000 -0.636000 3
151946.656000 496228.406000 -0.937000 3
151946.047000 496229.469000 -0.750000 3
151945.281000 496229.531000 -0.251000 3
151946.141000 496229.125000 -0.508000 3
151945.609000 496229.469000 -0.630000 3
151945.844000 496228.563000 -0.262000 3
151945.703000 496229.125000 -0.653000 3
151945.766000 496228.875000 -0.202000 3
151945.672000 496228.000000 0.297000 3
151945.578000 496228.313000 0.389000 3
151944.187000 496227.438000 -0.412000 3
151944.234000 496228.656000 -0.671000 3
151944.031000 496228.063000 -0.597000 3
151945.516000 496228.594000 0.084000 3
151945.000000 496228.844000 0.227000 3
151944.094000 496227.813000 -0.211000 3
151944.641000 496228.781000 -0.155000 3
151944.312000 496228.313000 -0.465000 3
151944.703000 496228.500000 0.223000 3
151945.156000 496228.188000 0.249000 3
151945.094000 496228.469000 -0.133000 3
151944.391000 496228.031000 -0.251000 3
151944.469000 496227.719000 -0.317000 3
151944.641000 496227.000000 -0.709000 3
151945.250000 496227.813000 -0.069000 3
151944.891000 496227.750000 -0.276000 3
151945.422000 496227.125000 -0.231000 3
151944.984000 496227.375000 -0.736000 3
151946.000000 496227.938000 -1.907000 3
151946.172000 496227.219000 -0.327000 3
151946.531000 496227.563000 -0.168000 3
151946.828000 496227.688000 -1.140000 3
151946.406000 496228.063000 -1.216000 3
151946.484000 496227.719000 -1.036000 3
151946.062000 496227.688000 -1.445000 3
151947.000000 496227.000000 -1.478000 3
151945.859000 496227.188000 -0.561000 3
151945.937000 496226.875000 -0.432000 3
151946.266000 496226.844000 -0.447000 3
151946.812000 496226.375000 -1.047000 3
151946.734000 496226.719000 -0.967000 3
151945.125000 496226.813000 -1.906000 3
151944.922000 496225.875000 -1.379000 3
151944.828000 496226.219000 -1.464000 3
151945.469000 496226.938000 -1.334000 3
151945.984000 496226.688000 -1.588000 3
151946.047000 496226.438000 -1.125000 3
151945.187000 496226.594000 -1.339000 3
151945.266000 496226.281000 -1.267000 3
151945.547000 496226.625000 -1.212000 3
151946.469000 496226.063000 -1.295000 3
151946.641000 496225.375000 -1.419000 3
151946.125000 496226.125000 -1.212000 3
151945.344000 496225.969000 -1.272000 3
151945.703000 496226.000000 -1.364000 3
151946.234000 496225.688000 -1.653000 3
151946.375000 496225.156000 -1.043000 3
151946.312000 496225.375000 -1.593000 3
151945.437000 496225.594000 -1.232000 3
151945.781000 496225.719000 -0.944000 3
151945.094000 496225.156000 -1.765000 3
151946.469000 496224.781000 -1.250000 3
151945.922000 496225.094000 -0.991000 3
151945.187000 496224.813000 -1.825000 3
151946.016000 496224.719000 -1.033000 3
151945.609000 496224.875000 -1.884000 3
151945.797000 496224.156000 -0.421000 3
151945.375000 496224.031000 -0.569000 3
151945.047000 496224.000000 -1.276000 3
151946.109000 496224.375000 -1.200000 3
151945.766000 496224.250000 -1.702000 3
151946.234000 496223.875000 -2.362000 3
151945.391000 496224.031000 -2.701000 3
151945.266000 496223.094000 -2.640000 3
151945.578000 496223.219000 -3.461000 3
151944.906000 496222.938000 -3.396000 3
151945.125000 496223.688000 -3.102000 3
151945.828000 496224.031000 -3.173000 3
151946.094000 496224.438000 -2.737000 3
151945.891000 496223.781000 -2.641000 3
151945.547000 496223.375000 -0.791000 3
151946.172000 496224.094000 -1.026000 3
151946.641000 496224.063000 -1.725000 3
151947.453000 496223.813000 -0.794000 3
151946.062000 496223.063000 -1.109000 3
151946.734000 496223.688000 -1.748000 3
151947.031000 496223.750000 -1.315000 3
151946.219000 496222.438000 -0.717000 3
151947.547000 496223.469000 -0.724000 3
151946.312000 496223.563000 -0.202000 3
151946.453000 496222.969000 0.202000 3
151946.375000 496223.281000 -0.079000 3
151947.094000 496223.563000 -0.448000 3
151947.156000 496223.250000 -0.350000 3
151946.594000 496222.406000 -1.070000 3
151948.016000 496221.563000 -0.464000 3
151948.859000 496221.094000 -0.600000 3
151949.312000 496220.594000 0.118000 3
151949.172000 496219.781000 -0.207000 3
151949.859000 496220.188000 -0.761000 3
151950.375000 496220.969000 -1.045000 3
151949.656000 496221.031000 -1.702000 3
151949.062000 496221.625000 -1.475000 3
151948.594000 496222.125000 -2.138000 3
151948.734000 496222.906000 -1.853000 3
151949.172000 496222.938000 -2.058000 3
151949.687000 496222.313000 -1.968000 3
151950.047000 496222.313000 -2.481000 3
151949.266000 496222.594000 -1.958000 3
151948.703000 496221.719000 -2.586000 3
151947.969000 496221.781000 -3.076000 3
151948.500000 496222.500000 -1.863000 3
151949.766000 496222.000000 -1.941000 3
151950.453000 496221.906000 -1.425000 3
151951.344000 496221.563000 -1.573000 3
151951.875000 496220.781000 -1.864000 3
151952.531000 496221.313000 -1.460000 3
151953.281000 496221.281000 -2.030000 3
151954.062000 496221.469000 -2.520000 3
151953.453000 496222.250000 -2.531000 3
151952.609000 496222.500000 -2.277000 3
151953.047000 496222.250000 -2.315000 3
151953.375000 496222.594000 -2.524000 3
151954.891000 496221.156000 -2.570000 3
151954.672000 496220.469000 -2.499000 3
151955.187000 496219.969000 -2.045000 3
151954.516000 496219.625000 -1.768000 3
151954.031000 496219.906000 -0.978000 3
151953.391000 496219.406000 -1.274000 3
151953.516000 496218.875000 -0.780000 3
151953.391000 496217.906000 -0.607000 3
151952.484000 496218.313000 -0.662000 3
151951.969000 496219.094000 -0.731000 3
151951.422000 496219.750000 -0.215000 3
151951.203000 496218.875000 0.210000 3
151950.594000 496218.625000 -0.440000 3
151950.109000 496219.156000 -0.859000 3
151949.859000 496218.375000 -1.135000 3
151950.719000 496218.125000 -1.542000 3
151951.203000 496217.625000 -1.326000 3
151951.953000 496217.594000 -1.236000 3
151952.703000 496217.500000 -1.729000 3
151952.562000 496218.031000 -2.370000 3
151952.031000 496218.844000 -2.138000 3
151952.609000 496217.875000 -3.310000 3
151951.797000 496218.219000 -3.378000 3
151953.266000 496218.406000 -3.410000 3
151954.078000 496218.094000 -3.266000 3
151954.922000 496218.031000 -3.189000 3
151954.250000 496217.406000 -3.542000 3
151954.469000 496218.156000 -3.253000 3
151954.156000 496217.781000 -3.213000 3
151953.937000 496218.688000 -3.536000 3
151953.734000 496218.031000 -3.558000 3
151953.562000 496218.719000 -3.424000 3
151953.625000 496218.406000 -3.385000 3
151952.219000 496218.063000 -2.504000 3
151952.766000 496217.250000 -1.209000 3
151952.609000 496217.813000 -1.734000 3
151952.406000 496217.313000 -1.103000 3
151952.328000 496217.625000 -1.440000 3
151951.281000 496217.313000 -1.132000 3
151950.828000 496217.719000 -2.101000 3
151950.891000 496217.469000 -1.496000 3
151951.141000 496217.938000 -1.514000 3
151950.469000 496217.750000 -1.634000 3
151949.797000 496217.281000 -1.348000 3
151950.078000 496217.500000 -0.501000 3
151949.312000 496217.688000 0.108000 3
151948.531000 496217.719000 -0.203000 3
151947.891000 496217.188000 -0.485000 3
151948.172000 496217.875000 -1.134000 3
151948.797000 496218.438000 -1.556000 3
151949.578000 496218.156000 -2.110000 3
151949.422000 496218.781000 -2.318000 3
151948.219000 496219.000000 -2.102000 3
151948.828000 496219.656000 -2.102000 3
151949.234000 496219.531000 -1.631000 3
151947.969000 496218.688000 -1.949000 3
151949.328000 496219.188000 -1.649000 3
151948.969000 496219.094000 -1.344000 3
151949.062000 496218.688000 -1.960000 3
151948.953000 496217.781000 -1.621000 3
151948.875000 496218.125000 -1.466000 3
151948.266000 496217.500000 -1.385000 3
151948.125000 496218.125000 -1.494000 3
151948.422000 496218.156000 -1.354000 3
151947.359000 496217.844000 -0.761000 3
151946.812000 496218.281000 -1.431000 3
151945.984000 496218.625000 -1.837000 3
151945.812000 496217.875000 -2.226000 3
151945.219000 496218.406000 -2.481000 3
151945.531000 496219.000000 -3.074000 3
151944.922000 496219.625000 -3.388000 3
151944.281000 496219.063000 -3.364000 3
151944.094000 496219.844000 -2.868000 3
151943.906000 496220.594000 -2.263000 3
151943.141000 496220.469000 -1.692000 3
151943.594000 496220.281000 -1.165000 3
151943.984000 496220.313000 -0.259000 3
151944.125000 496219.719000 0.503000 3
151944.687000 496218.969000 0.412000 3
151945.203000 496218.469000 -0.227000 3
151944.812000 496218.469000 -0.488000 3
151944.203000 496217.844000 -0.035000 3
151943.344000 496218.094000 0.148000 3
151942.609000 496217.938000 -0.443000 3
151941.734000 496218.375000 -0.644000 3
151941.609000 496218.875000 0.203000 3
151940.859000 496218.875000 -0.287000 3
151940.625000 496219.844000 -0.255000 3
151940.187000 496219.594000 -1.101000 3
151940.031000 496218.906000 -1.324000 3
151940.922000 496218.656000 -1.696000 3
151939.797000 496218.125000 -0.983000 3
151939.016000 496218.125000 -0.631000 3
151938.437000 496217.375000 -0.868000 3
151937.859000 496218.063000 -0.542000 3
151937.734000 496218.594000 -1.143000 3
151937.312000 496218.313000 -1.671000 3
151938.094000 496218.719000 -0.430000 3
151937.922000 496219.438000 -0.140000 3
151937.016000 496219.563000 -0.193000 3
151936.812000 496220.313000 0.316000 3
151937.562000 496220.875000 0.551000 3
151937.937000 496221.000000 0.872000 3
151937.391000 496219.938000 0.818000 3
151938.266000 496219.688000 0.795000 3
151937.172000 496220.813000 0.224000 3
151937.312000 496220.250000 0.602000 3
151936.516000 496219.969000 0.134000 3
151936.594000 496219.656000 0.215000 3
151936.906000 496219.938000 0.215000 3
151937.078000 496219.281000 -0.023000 3
151937.484000 496219.563000 0.574000 3
151937.562000 496219.219000 0.387000 3
151938.234000 496219.844000 -0.191000 3
151937.844000 496219.719000 -0.494000 3
151937.984000 496219.188000 0.181000 3
151938.375000 496219.250000 -0.110000 3
151937.797000 496218.313000 -0.770000 3
151938.344000 496217.719000 -0.735000 3
151939.156000 496217.500000 -0.401000 3
151939.922000 496217.656000 0.221000 3
151940.672000 496217.656000 0.833000 3
151941.562000 496217.594000 0.890000 3
151941.156000 496217.688000 0.493000 3
151940.750000 496217.313000 0.669000 3
151940.437000 496217.250000 0.735000 3
151939.969000 496217.406000 0.797000 3
151940.312000 496217.750000 -0.114000 3
151940.375000 496217.500000 0.379000 3
151940.016000 496217.250000 -0.238000 3
151939.672000 496217.281000 0.155000 3
151938.719000 496217.906000 -0.127000 3
151939.844000 496217.938000 -0.193000 3
151940.281000 496217.875000 -1.382000 3
151939.531000 496217.813000 -0.503000 3
151939.453000 496218.156000 -0.643000 3
151940.187000 496218.281000 -0.784000 3
151940.437000 496218.594000 -1.271000 3
151940.109000 496218.563000 -1.146000 3
151940.359000 496218.938000 -1.242000 3
151941.328000 496220.031000 -0.888000 3
151941.906000 496220.781000 -1.085000 3
151941.391000 496221.094000 -0.291000 3
151942.203000 496221.156000 -0.159000 3
151942.891000 496221.469000 0.381000 3
151943.203000 496221.875000 0.557000 3
151942.969000 496221.188000 0.560000 3
151942.031000 496220.313000 -0.200000 3
151941.594000 496220.281000 0.634000 3
151942.156000 496219.750000 0.452000 3
151942.625000 496219.469000 -0.232000 3
151942.750000 496218.938000 0.526000 3
151942.953000 496219.719000 0.318000 3
151942.859000 496220.094000 0.461000 3
151942.516000 496219.875000 0.284000 3
151942.422000 496220.281000 0.493000 3
151942.797000 496220.344000 -0.100000 3
151942.078000 496220.094000 0.432000 3
151942.031000 496221.875000 0.193000 3
151942.531000 496221.438000 0.490000 3
151942.609000 496221.063000 0.446000 3
151941.531000 496220.531000 0.247000 3
151941.203000 496220.531000 0.230000 3
151940.375000 496220.813000 -0.236000 3
151941.766000 496221.375000 0.333000 3
151940.969000 496221.500000 0.121000 3
151941.047000 496221.188000 0.171000 3
151941.312000 496221.406000 -0.282000 3
151942.734000 496220.563000 -0.604000 3
151941.734000 496221.469000 -1.060000 3
151941.844000 496219.281000 -1.091000 3
151942.687000 496219.219000 -1.582000 3
151942.859000 496218.500000 -2.035000 3
151943.078000 496219.219000 -2.653000 3
151942.937000 496219.750000 -3.417000 3
151942.594000 496219.594000 -3.544000 3
151942.859000 496220.063000 -3.533000 3
151943.453000 496220.844000 -3.632000 3
151944.109000 496221.281000 -3.407000 3
151944.578000 496221.000000 -2.999000 3
151945.172000 496220.406000 -2.536000 3
151942.547000 496219.781000 -2.438000 3
151942.750000 496220.531000 -2.634000 3
151942.578000 496221.250000 -2.528000 3
151943.312000 496218.250000 -2.654000 3
151944.141000 496218.094000 -2.435000 3
151943.797000 496217.844000 -1.789000 3
151944.609000 496217.750000 -1.617000 3
151945.422000 496217.625000 -1.316000 3
151945.844000 496217.750000 -1.088000 3
151945.500000 496217.313000 -1.247000 3
151945.094000 496217.313000 -1.329000 3
151945.016000 496217.688000 -1.246000 3
151943.500000 496217.531000 -1.284000 3
151943.422000 496217.844000 -1.438000 3
151944.297000 496217.438000 -2.240000 3
151944.203000 496217.813000 -2.139000 3
151943.641000 496218.469000 -1.918000 3
151943.344000 496218.156000 -1.532000 3
151942.625000 496219.438000 -2.330000 3
151942.344000 496219.031000 -1.822000 3
151942.250000 496219.406000 -1.501000 3
151941.156000 496220.719000 -0.570000 3
151941.500000 496220.688000 -0.847000 3
151941.406000 496219.688000 -0.695000 3
151941.281000 496220.219000 0.208000 3
151940.797000 496220.656000 -0.251000 3
151940.469000 496220.438000 -0.475000 3
151940.547000 496220.125000 -0.591000 3
151940.953000 496220.000000 -0.355000 3
151940.516000 496218.281000 -0.948000 3
151941.500000 496219.344000 -0.801000 3
151941.047000 496219.625000 -0.583000 3
151940.703000 496219.469000 -0.421000 3
151941.125000 496219.281000 -0.591000 3
151940.781000 496219.188000 -0.362000 3
151942.406000 496218.781000 0.569000 3
151942.266000 496219.313000 -0.053000 3
151941.781000 496219.563000 0.494000 3
151940.969000 496218.469000 -0.679000 3
151942.016000 496218.594000 -1.272000 3
151941.469000 496217.938000 -0.835000 3
151941.406000 496218.219000 -1.027000 3
151941.297000 496218.625000 -0.609000 3
151943.078000 496217.656000 -1.276000 3
151942.359000 496217.250000 -1.438000 3
151942.359000 496217.219000 0.192000 3
151943.141000 496217.375000 -0.980000 3
151941.875000 496217.844000 0.042000 3
151941.828000 496218.031000 -0.752000 3
151942.984000 496218.000000 -1.197000 3
151942.797000 496217.250000 -0.604000 3
151942.297000 496217.469000 -0.051000 3
151942.719000 496217.531000 -0.927000 3
151942.234000 496217.688000 -0.879000 3
151942.531000 496218.250000 -0.484000 3
151943.562000 496218.781000 -0.136000 3
151943.703000 496218.219000 0.310000 3
151945.641000 496218.500000 -0.345000 3
151945.281000 496218.188000 -0.067000 3
151945.375000 496219.594000 0.466000 3
151945.547000 496218.906000 0.119000 3
151944.031000 496218.531000 0.183000 3
151944.469000 496218.344000 -0.019000 3
151944.391000 496218.625000 -0.122000 3
151945.016000 496219.219000 0.158000 3
151944.891000 496219.750000 -0.397000 3
151945.094000 496218.906000 0.378000 3
151943.391000 496219.438000 -0.010000 3
151943.937000 496218.906000 0.210000 3
151943.281000 496219.875000 0.499000 3
151944.937000 496219.563000 0.274000 3
151943.437000 496219.281000 0.694000 3
151944.609000 496219.281000 0.256000 3
151943.859000 496219.219000 0.120000 3
151944.531000 496219.625000 0.427000 3
151943.687000 496219.938000 0.580000 3
151944.437000 496219.969000 0.510000 3
151943.219000 496220.188000 0.277000 3
151944.391000 496220.156000 -0.312000 3
151944.062000 496220.000000 0.008000 3
151944.187000 496221.031000 -1.141000 3
151943.641000 496220.125000 -0.320000 3
151943.172000 496220.344000 -0.593000 3
151942.984000 496221.094000 -1.759000 3
151943.078000 496220.719000 -2.145000 3
151944.031000 496220.063000 -1.628000 3
151943.500000 496220.688000 -2.755000 3
151943.547000 496220.438000 -2.141000 3
151944.266000 496220.719000 -2.930000 3
151943.687000 496219.875000 -3.544000 3
151944.344000 496220.375000 -2.755000 3
151944.484000 496219.781000 -2.422000 3
151943.594000 496218.656000 -2.945000 3
151943.453000 496219.188000 -3.448000 3
151943.531000 496218.906000 -3.208000 3
151943.906000 496219.031000 -2.699000 3
151943.844000 496219.281000 -3.153000 3
151944.109000 496219.750000 -3.433000 3
151944.203000 496219.406000 -3.329000 3
151944.594000 496219.375000 -2.969000 3
151945.297000 496219.906000 -3.629000 3
151944.531000 496219.594000 -3.582000 3
151945.406000 496219.469000 -2.315000 3
151944.969000 496219.406000 -2.515000 3
151945.703000 496219.781000 -2.802000 3
151945.344000 496219.719000 -2.830000 3
151944.547000 496217.969000 -2.089000 3
151944.750000 496218.750000 -2.875000 3
151945.062000 496219.063000 -2.579000 3
151944.906000 496218.125000 -2.607000 3
151944.828000 496218.438000 -2.667000 3
151945.141000 496218.719000 -2.680000 3
151945.375000 496217.781000 -2.383000 3
151945.484000 496219.188000 -1.981000 3
151945.828000 496219.250000 -1.936000 3
151945.562000 496218.844000 -2.182000 3
151945.641000 496218.531000 -2.101000 3
151945.906000 496218.938000 -1.893000 3
151946.234000 496217.656000 -1.908000 3
151946.047000 496218.375000 -1.378000 3
151946.125000 496218.063000 -1.306000 3
151946.406000 496218.469000 -0.892000 3
151946.703000 496218.719000 -1.008000 3
151947.141000 496218.750000 -1.257000 3
151946.516000 496218.094000 -1.331000 3
151946.656000 496217.500000 -0.768000 3
151947.219000 496218.406000 -1.148000 3
151946.875000 496218.031000 -1.005000 3
151946.937000 496217.781000 -0.805000 3
151947.828000 496217.438000 -1.211000 3
151948.312000 496217.313000 -0.454000 3
151948.875000 496218.094000 0.188000 3
151949.391000 496218.906000 0.273000 3
151949.719000 496218.969000 0.166000 3
151948.984000 496217.688000 -0.274000 3
151949.062000 496217.344000 -0.033000 3
151949.719000 496217.594000 -1.603000 3
151949.219000 496218.063000 -1.512000 3
151949.812000 496218.625000 -1.792000 3
151950.422000 496219.344000 -1.997000 3
151950.594000 496220.125000 -2.136000 3
151949.844000 496220.250000 -2.318000 3
151949.469000 496218.594000 -1.589000 3
151949.953000 496218.031000 -1.227000 3
151949.625000 496219.344000 -1.298000 3
151950.250000 496218.625000 -0.214000 3
151951.984000 496220.344000 -0.520000 3
151951.469000 496221.063000 -0.562000 3
151951.562000 496220.688000 -0.825000 3
151950.828000 496219.188000 -0.065000 3
151950.922000 496220.063000 -0.694000 3
151950.750000 496219.500000 -0.026000 3
151951.125000 496219.250000 0.244000 3
151951.344000 496220.031000 -0.694000 3
151950.984000 496219.781000 -0.367000 3
151951.094000 496219.344000 -1.036000 3
151952.062000 496220.000000 -0.557000 3
151952.547000 496219.563000 -0.754000 3
151951.906000 496219.281000 -1.223000 3
151952.250000 496219.281000 -0.762000 3
151951.859000 496217.938000 -1.228000 3
151951.687000 496218.656000 -0.886000 3
151951.750000 496218.406000 -0.476000 3
151952.187000 496218.188000 -0.055000 3
151952.750000 496218.781000 0.226000 3
151952.047000 496218.750000 -0.494000 3
151953.141000 496217.188000 -1.225000 3
151952.547000 496218.094000 -0.148000 3
151953.547000 496217.250000 -0.660000 3
151952.922000 496218.063000 -0.192000 3
151953.484000 496217.531000 -0.842000 3
151954.078000 496218.094000 -1.319000 3
151954.750000 496218.719000 -1.357000 3
151954.266000 496217.375000 -1.754000 3
151954.562000 496217.813000 -1.482000 3
151954.484000 496218.094000 -1.664000 3
151954.375000 496218.563000 -1.003000 3
151953.984000 496218.438000 -1.227000 3
151953.312000 496218.219000 -0.521000 3
151953.687000 496218.219000 -0.525000 3
151953.141000 496218.938000 -0.405000 3
151953.219000 496218.594000 -0.594000 3
151953.594000 496218.563000 -0.554000 3
151953.062000 496219.188000 -0.733000 3
151953.016000 496219.406000 -1.380000 3
151953.297000 496219.781000 -1.195000 3
151953.172000 496220.281000 -1.913000 3
151952.797000 496220.281000 -1.961000 3
151953.578000 496220.094000 -1.350000 3
151953.734000 496219.500000 -0.835000 3
151954.937000 496219.406000 -0.926000 3
151954.203000 496219.219000 -1.008000 3
151955.031000 496219.031000 -1.359000 3
151953.672000 496219.750000 -1.546000 3
151953.984000 496220.063000 -1.694000 3
151954.141000 496219.469000 -1.407000 3
151954.594000 496219.344000 -1.356000 3
151954.984000 496219.219000 -2.062000 3
151955.375000 496219.250000 -2.242000 3
151955.500000 496220.188000 -1.780000 3
151955.266000 496219.688000 -1.875000 3
151954.828000 496219.844000 -2.316000 3
151955.344000 496220.750000 -2.220000 3
151954.953000 496220.906000 -2.189000 3
151955.281000 496221.031000 -2.402000 3
151954.781000 496221.594000 -2.017000 3
151954.594000 496220.813000 -2.421000 3
151953.891000 496222.156000 -2.245000 3
151954.016000 496221.688000 -3.182000 3
151953.344000 496221.031000 -3.440000 3
151952.781000 496220.344000 -3.521000 3
151952.172000 496221.063000 -3.434000 3
151951.594000 496220.563000 -3.447000 3
151951.750000 496219.938000 -3.362000 3
151951.312000 496220.188000 -3.512000 3
151951.859000 496220.844000 -3.481000 3
151952.109000 496219.875000 -3.206000 3
151952.422000 496220.063000 -3.577000 3
151952.531000 496221.344000 -3.344000 3
151953.062000 496220.688000 -3.472000 3
151954.156000 496221.094000 -2.727000 3
151952.594000 496221.125000 -2.576000 3
151953.516000 496222.000000 -2.238000 3
151953.109000 496221.969000 -1.999000 3
151953.062000 496220.688000 -1.773000 3
151953.344000 496221.031000 -1.621000 3
151952.844000 496221.563000 -2.233000 3
151953.187000 496221.688000 -1.880000 3
151952.453000 496221.688000 -1.378000 3
151952.719000 496220.563000 -2.082000 3
151952.641000 496220.906000 -2.148000 3
151952.250000 496220.781000 -1.428000 3
151952.187000 496221.031000 -1.725000 3
151951.469000 496222.469000 -1.555000 3
151952.000000 496221.813000 -1.176000 3
151952.078000 496221.438000 -1.287000 3
151951.547000 496222.156000 -1.522000 3
151951.437000 496221.188000 -1.795000 3
151951.625000 496221.813000 -1.476000 3
151951.703000 496221.469000 -1.629000 3
151951.094000 496222.594000 -1.390000 3
151951.172000 496222.250000 -1.519000 3
151950.797000 496222.250000 -1.330000 3
151950.891000 496221.875000 -1.441000 3
151949.328000 496222.313000 -1.759000 3
151949.406000 496222.000000 -1.799000 3
151948.656000 496221.844000 -1.723000 3
151948.156000 496221.031000 -1.770000 3
151948.812000 496221.219000 -1.666000 3
151949.484000 496221.688000 -1.795000 3
151949.750000 496220.656000 -2.080000 3
151949.547000 496221.406000 -1.296000 3
151950.094000 496220.656000 -1.868000 3
151951.187000 496220.656000 -0.782000 3
151950.969000 496221.563000 -1.267000 3
151950.719000 496220.844000 -1.831000 3
151950.828000 496220.406000 -0.574000 3
151951.047000 496221.219000 -1.388000 3
151949.906000 496221.438000 -1.105000 3
151950.328000 496221.188000 -1.640000 3
151950.766000 496220.688000 -0.837000 3
151949.984000 496221.125000 -1.230000 3
151950.687000 496219.750000 -0.528000 3
151949.547000 496219.656000 -1.478000 3
151950.047000 496219.438000 -1.221000 3
151950.375000 496219.563000 -0.704000 3
151950.234000 496220.094000 -1.440000 3
151949.953000 496219.844000 -0.838000 3
151948.594000 496219.250000 -0.668000 3
151947.766000 496219.563000 -0.632000 3
151948.344000 496220.219000 -0.716000 3
151947.812000 496220.625000 -0.145000 3
151947.484000 496220.688000 -0.004000 3
151947.922000 496220.188000 -0.890000 3
151948.000000 496219.906000 -0.690000 3
151947.844000 496219.250000 -0.723000 3
151948.078000 496219.563000 -0.714000 3
151948.156000 496219.250000 -0.663000 3
151949.641000 496219.250000 -0.095000 3
151949.328000 496219.188000 0.071000 3
151949.578000 496219.531000 -0.283000 3
151949.766000 496220.594000 -0.335000 3
151949.078000 496220.188000 0.052000 3
151948.734000 496221.563000 -1.428000 3
151949.000000 496220.500000 0.088000 3
151949.141000 496221.313000 -1.423000 3
151948.281000 496220.531000 -0.808000 3
151948.609000 496220.563000 -0.589000 3
151949.250000 496220.844000 -0.331000 3
151949.187000 496221.125000 -0.705000 3
151948.531000 496220.875000 -0.919000 3
151947.391000 496221.031000 0.039000 3
151948.187000 496220.875000 -0.964000 3
151947.734000 496220.969000 -0.224000 3
151948.375000 496221.469000 -1.039000 3
151947.656000 496221.281000 -0.180000 3
151948.094000 496221.250000 -0.396000 3
151947.250000 496222.906000 -0.333000 3
151947.000000 496222.594000 -0.308000 3
151947.703000 496222.813000 -0.792000 3
151947.937000 496221.906000 -0.468000 3
151947.797000 496222.469000 -0.822000 3
151947.859000 496222.188000 -0.578000 3
151947.156000 496222.000000 -0.191000 3
151947.500000 496221.906000 -0.437000 3
151946.875000 496221.281000 -0.012000 3
151947.328000 496221.281000 -0.482000 3
151946.734000 496221.844000 -0.533000 3
151947.547000 496221.688000 -1.701000 3
151947.250000 496221.656000 -2.210000 3
151947.297000 496221.406000 -1.466000 3
151946.625000 496220.781000 -2.778000 3
151946.125000 496221.000000 -3.045000 3
151946.406000 496221.656000 -3.547000 3
151945.969000 496221.625000 -3.385000 3
151946.187000 496220.750000 -2.811000 3
151945.531000 496220.469000 -2.266000 3
151946.062000 496219.906000 -2.335000 3
151945.984000 496220.188000 -2.496000 3
151947.422000 496220.969000 -2.376000 3
151946.984000 496220.813000 -2.593000 3
151947.484000 496220.656000 -2.109000 3
151946.625000 496220.781000 -0.825000 3
151946.484000 496219.625000 -1.717000 3
151947.062000 496220.500000 -0.669000 3
151947.031000 496219.125000 -0.784000 3
151946.109000 496219.688000 -1.531000 3
151945.906000 496218.938000 0.017000 3
151945.500000 496219.094000 -0.795000 3
151945.875000 496219.094000 -0.889000 3
151946.516000 496219.500000 -0.415000 3
151946.078000 496221.219000 -0.015000 3
151946.031000 496220.031000 0.385000 3
151946.250000 496220.531000 0.029000 3
151946.156000 496220.875000 -0.015000 3
151945.969000 496220.281000 -0.155000 3
151945.656000 496219.938000 0.212000 3
151945.891000 496220.594000 0.007000 3
151945.219000 496220.250000 0.269000 3
151945.578000 496220.281000 0.167000 3
151945.531000 496222.000000 0.631000 3
151945.781000 496221.000000 0.413000 3
151945.141000 496222.000000 0.897000 3
151945.609000 496221.688000 0.577000 3
151945.422000 496220.875000 0.073000 3
151945.687000 496221.406000 0.691000 3
151945.344000 496221.219000 0.085000 3
151945.234000 496221.625000 0.648000 3
151945.031000 496221.000000 0.843000 3
151944.594000 496220.938000 0.690000 3
151944.203000 496220.906000 0.273000 3
151944.516000 496221.250000 0.314000 3
151944.875000 496221.625000 0.613000 3
151944.562000 496222.875000 0.088000 3
151944.422000 496221.594000 0.519000 3
151944.625000 496222.594000 0.467000 3
151944.734000 496222.188000 -0.058000 3
151944.203000 496222.500000 0.150000 3
151944.406000 496221.656000 -0.886000 3
151943.844000 496220.844000 -0.828000 3
151943.391000 496221.125000 -0.224000 3
151942.812000 496221.750000 0.128000 3
151942.391000 496221.969000 -0.176000 3
151943.578000 496221.906000 -0.425000 3
151942.687000 496222.281000 -0.759000 3
151943.469000 496222.344000 0.237000 3
151942.594000 496222.656000 -0.275000 3
151942.641000 496222.469000 0.283000 3
151943.375000 496222.688000 0.353000 3
151943.797000 496224.125000 -0.167000 3
151943.891000 496223.781000 -0.271000 3
151942.891000 496223.125000 0.289000 3
151942.828000 496223.375000 -0.351000 3
151943.484000 496223.781000 -0.299000 3
151943.234000 496223.281000 0.008000 3
151942.281000 496223.906000 -0.851000 3
151943.406000 496224.125000 -0.361000 3
151943.328000 496224.438000 -0.487000 3
151942.750000 496223.688000 -0.270000 3
151943.078000 496223.906000 -0.048000 3
151942.672000 496223.969000 -0.541000 3
151943.000000 496224.250000 0.060000 3
151942.922000 496224.563000 -0.058000 3
151942.187000 496224.313000 -0.432000 3
151942.094000 496224.656000 -0.310000 3
151941.672000 496224.875000 -0.579000 3
151941.594000 496225.188000 -0.768000 3
151941.562000 496225.313000 -1.985000 3
151941.078000 496225.656000 -0.758000 3
151941.172000 496225.313000 -1.158000 3
151940.734000 496225.469000 -0.875000 3
151940.078000 496226.406000 -1.850000 3
151940.437000 496226.688000 -1.254000 3
151940.125000 496226.250000 -0.726000 3
151939.656000 496226.750000 -1.783000 3
151939.984000 496226.781000 -1.479000 3
151940.000000 496225.375000 -2.273000 3
151939.344000 496226.469000 -0.831000 3
151939.000000 496226.375000 -0.747000 3
151939.719000 496226.500000 -1.426000 3
151939.625000 496225.344000 -1.669000 3
151938.328000 496225.750000 -1.515000 3
151939.812000 496226.156000 -1.417000 3
151938.953000 496226.594000 -1.358000 3
151939.562000 496225.625000 -1.768000 3
151939.203000 496225.563000 -1.582000 3
151939.453000 496226.063000 -1.128000 3
151939.937000 496225.625000 -0.770000 3
151937.656000 496225.375000 -0.598000 3
151937.906000 496225.750000 -0.329000 3
151937.969000 496225.500000 -0.053000 3
151938.359000 496225.656000 -0.356000 3
151938.750000 496225.375000 -0.405000 3
151938.062000 496225.094000 -0.348000 3
151937.797000 496224.813000 0.013000 3
151938.141000 496224.781000 -0.336000 3
151938.500000 496225.031000 -0.014000 3
151938.578000 496224.781000 0.196000 3
151938.656000 496224.438000 0.140000 3
151938.844000 496225.000000 -0.334000 3
151938.922000 496224.656000 -0.487000 3
151939.406000 496224.719000 -0.641000 3
151939.062000 496224.125000 0.127000 3
151938.891000 496223.500000 0.547000 3
151938.187000 496223.219000 0.167000 3
151937.297000 496223.594000 0.422000 3
151937.062000 496222.875000 0.656000 3
151937.609000 496222.313000 0.783000 3
151938.422000 496222.313000 0.442000 3
151937.391000 496223.250000 0.490000 3
151937.656000 496223.563000 0.596000 3
151938.266000 496222.938000 0.521000 3
151938.109000 496223.563000 0.378000 3
151938.516000 496223.313000 0.356000 3
151938.969000 496223.156000 0.492000 3
151938.750000 496224.063000 -0.002000 3
151939.672000 496223.656000 -1.149000 3
151939.844000 496224.469000 -1.064000 3
151940.531000 496224.594000 -0.804000 3
151939.906000 496224.219000 -0.568000 3
151940.672000 496224.031000 -0.329000 3
151941.453000 496224.156000 -2.022000 3
151941.359000 496224.563000 -1.494000 3
151940.609000 496224.281000 -0.816000 3
151940.453000 496223.594000 -0.856000 3
151941.000000 496224.406000 -1.396000 3
151941.062000 496224.188000 -0.767000 3
151940.797000 496223.500000 -1.467000 3
151940.609000 496222.938000 -0.865000 3
151942.187000 496222.750000 -1.318000 3
151940.875000 496223.188000 -1.557000 3
151941.250000 496223.438000 -1.308000 3
151941.766000 496222.906000 -1.569000 3
151942.297000 496222.313000 -0.150000 3
151941.937000 496222.219000 0.273000 3
151941.594000 496222.031000 0.262000 3
151942.250000 496222.563000 -0.597000 3
151940.922000 496222.969000 -0.857000 3
151941.156000 496222.063000 -0.563000 3
151941.516000 496222.375000 0.162000 3
151941.078000 496222.344000 -0.647000 3
151941.875000 496222.469000 -0.074000 3
151941.828000 496224.250000 -0.422000 3
151942.344000 496223.656000 -0.453000 3
151941.469000 496224.094000 -0.444000 3
151942.078000 496223.250000 -0.466000 3
151941.906000 496223.938000 -0.174000 3
151941.031000 496222.594000 0.668000 3
151939.625000 496223.875000 0.175000 3
151940.484000 496223.438000 0.050000 3
151939.687000 496223.563000 0.206000 3
151939.766000 496223.281000 0.404000 3
151939.312000 496223.125000 0.178000 3
151939.078000 496222.750000 0.077000 3
151939.812000 496223.094000 -0.726000 3
151940.719000 496222.500000 0.197000 3
151940.281000 496222.719000 0.393000 3
151940.219000 496223.000000 0.186000 3
151939.500000 496222.344000 -0.623000 3
151940.922000 496221.688000 -0.616000 3
151940.828000 496222.031000 -0.672000 3
151940.562000 496221.594000 -0.272000 3
151940.656000 496221.219000 -0.663000 3
151940.328000 496221.000000 -1.266000 3
151940.094000 496222.000000 -1.340000 3
151939.594000 496222.000000 -0.605000 3
151939.781000 496221.219000 -1.451000 3
151939.422000 496221.344000 -2.335000 3
151938.953000 496221.531000 -2.334000 3
151938.641000 496221.438000 -2.628000 3
151939.078000 496221.000000 -1.535000 3
151938.766000 496220.938000 -1.897000 3
151939.453000 496219.531000 -0.361000 3
151939.531000 496219.219000 -0.161000 3
151939.109000 496219.500000 -0.588000 3
151939.859000 496219.563000 -1.035000 3
151939.391000 496219.781000 -0.828000 3
151938.984000 496220.063000 -1.158000 3
151938.562000 496219.875000 0.050000 3
151939.828000 496221.031000 -0.686000 3
151939.625000 496220.500000 0.503000 3
151938.891000 496220.406000 -0.918000 3
151939.906000 496220.750000 -0.347000 3
151939.719000 496220.156000 0.083000 3
151939.250000 496220.344000 0.408000 3
151939.141000 496220.781000 -0.850000 3
151939.625000 496221.875000 0.494000 3
151939.562000 496220.750000 0.095000 3
151938.828000 496222.000000 0.583000 3
151938.578000 496221.688000 0.631000 3
151939.500000 496221.063000 -0.102000 3
151938.922000 496221.688000 0.672000 3
151939.062000 496221.063000 0.749000 3
151938.734000 496221.031000 0.642000 3
151939.312000 496221.781000 0.305000 3
151939.406000 496221.438000 0.162000 3
151938.141000 496220.188000 -0.155000 3
151938.969000 496221.469000 -0.578000 3
151937.891000 496221.188000 0.201000 3
151938.328000 496220.844000 -0.100000 3
151937.437000 496221.344000 -0.675000 3
151938.344000 496222.594000 0.237000 3
151937.359000 496221.656000 -0.666000 3
151937.828000 496221.469000 -0.263000 3
151937.937000 496222.406000 -0.294000 3
151937.859000 496222.750000 -0.200000 3
151937.687000 496222.031000 -0.715000 3
151937.766000 496223.094000 -0.082000 3
151936.859000 496223.688000 -0.425000 3
151938.484000 496223.406000 -0.886000 3
151937.906000 496224.406000 -0.628000 3
151937.437000 496223.000000 -0.968000 3
151938.062000 496223.750000 -0.333000 3
151938.156000 496223.344000 -1.015000 3
151937.984000 496224.031000 -0.711000 3
151937.219000 496223.906000 -1.532000 3
151937.344000 496223.438000 -2.372000 3
151937.109000 496224.344000 -2.642000 3
151936.625000 496224.656000 -2.544000 3
151936.047000 496225.344000 -2.313000 3
151935.516000 496225.531000 -1.658000 3
151934.812000 496225.156000 -1.437000 3
151934.594000 496224.344000 -1.281000 3
151934.687000 496223.938000 -1.742000 3
151934.437000 496223.188000 -1.802000 3
151934.281000 496225.563000 -1.826000 3
151934.375000 496225.250000 -1.852000 3
151934.891000 496224.875000 -0.981000 3
151934.437000 496224.969000 -1.425000 3
151935.047000 496225.844000 -1.806000 3
151935.203000 496225.219000 -1.603000 3
151935.437000 496225.906000 -1.471000 3
151935.141000 496225.531000 -1.847000 3
151935.594000 496225.250000 -1.615000 3
151935.953000 496225.719000 -1.979000 3
151937.375000 496224.719000 -2.406000 3
151937.453000 496224.375000 -2.449000 3
151937.547000 496224.000000 -2.760000 3
151937.609000 496223.750000 -2.063000 3
151935.687000 496224.875000 -1.705000 3
151937.047000 496224.625000 -1.058000 3
151936.094000 496225.188000 -1.521000 3
151935.766000 496224.563000 -1.749000 3
151934.750000 496223.688000 -1.219000 3
151934.969000 496224.531000 -1.250000 3
151935.359000 496224.594000 -1.383000 3
151935.062000 496224.156000 -1.469000 3
151935.437000 496224.313000 -1.256000 3
151935.906000 496224.000000 -1.216000 3
151936.500000 496223.563000 -1.188000 3
151935.484000 496222.438000 -1.590000 3
151935.281000 496221.563000 -1.991000 3
151934.812000 496221.625000 -1.187000 3
151934.156000 496221.219000 -0.588000 3
151933.969000 496220.406000 -0.385000 3
151934.484000 496219.844000 -0.646000 3
151934.781000 496220.250000 -1.058000 3
151934.062000 496220.000000 -0.978000 3
151934.656000 496220.719000 -0.248000 3
151933.641000 496221.719000 -0.452000 3
151933.844000 496222.469000 -0.790000 3
151933.953000 496222.031000 -1.530000 3
151934.547000 496222.688000 -0.753000 3
151934.312000 496220.594000 -0.256000 3
151934.484000 496221.375000 -0.068000 3
151933.891000 496220.719000 -0.497000 3
151933.734000 496221.344000 -0.873000 3
151934.250000 496220.844000 -0.797000 3
151933.812000 496221.063000 -0.602000 3
151934.000000 496221.813000 -0.995000 3
151934.609000 496220.938000 -0.951000 3
151934.969000 496221.000000 -1.053000 3
151934.719000 496222.031000 -0.944000 3
151934.891000 496221.344000 -1.016000 3
151935.844000 496221.031000 -2.397000 3
151935.531000 496220.594000 -1.973000 3
151936.437000 496220.313000 -1.703000 3
151935.906000 496220.750000 -2.105000 3
151934.484000 496221.375000 -1.854000 3
151935.766000 496221.344000 -2.306000 3
151935.344000 496221.313000 -1.556000 3
151935.672000 496221.688000 -2.270000 3
151935.578000 496222.063000 -2.095000 3
151936.031000 496223.469000 -0.547000 3
151935.281000 496223.281000 -0.801000 3
151935.375000 496222.875000 -1.044000 3
151937.187000 496222.344000 -0.682000 3
151937.125000 496222.594000 -0.881000 3
151936.234000 496222.688000 -1.342000 3
151935.828000 496222.750000 -0.891000 3
151936.797000 496222.344000 -0.693000 3
151936.359000 496222.156000 -0.514000 3
151936.844000 496222.156000 0.206000 3
151936.672000 496222.844000 0.429000 3
151936.437000 496220.313000 0.098000 3
151937.078000 496221.219000 0.634000 3
151935.703000 496221.531000 0.638000 3
151936.547000 496221.375000 0.597000 3
151936.156000 496221.438000 0.832000 3
151936.328000 496220.719000 0.653000 3
151934.984000 496220.938000 0.642000 3
151935.422000 496221.031000 0.647000 3
151935.078000 496220.625000 0.682000 3
151935.141000 496220.313000 0.698000 3
151934.781000 496220.219000 0.630000 3
151934.531000 496219.688000 0.275000 3
151934.609000 496219.344000 0.166000 3
151936.000000 496218.688000 0.125000 3
151935.750000 496219.656000 0.294000 3
151934.969000 496219.469000 0.165000 3
151935.500000 496218.906000 0.220000 3
151935.937000 496218.969000 -0.139000 3
151936.328000 496219.031000 -0.765000 3
151936.234000 496219.406000 -0.418000 3
151936.172000 496219.688000 -0.597000 3
151936.109000 496219.969000 -1.157000 3
151936.844000 496218.656000 -1.651000 3
151935.906000 496219.094000 -1.387000 3
151937.437000 496217.781000 -0.933000 3
151936.312000 496217.438000 -1.413000 3
151936.406000 496218.719000 -0.416000 3
151937.375000 496218.094000 -1.112000 3
151936.984000 496218.063000 -1.228000 3
151936.531000 496218.250000 -1.176000 3
151935.297000 496218.094000 0.018000 3
151935.391000 496217.719000 -0.279000 3
151934.609000 496219.406000 -1.365000 3
151934.187000 496217.844000 -1.089000 3
151934.812000 496218.563000 -0.529000 3
151934.906000 496218.156000 -0.923000 3
151934.672000 496219.125000 -1.153000 3
151934.109000 496218.156000 -1.159000 3
151934.516000 496218.219000 -1.389000 3
151934.141000 496219.688000 -0.843000 3
151934.047000 496218.438000 -1.327000 3
151934.234000 496219.313000 -1.026000 3
151933.953000 496218.813000 -1.257000 3
151933.875000 496219.125000 -1.232000 3
151932.734000 496218.094000 -1.091000 3
151933.406000 496218.219000 -1.098000 3
151933.344000 496218.500000 -1.267000 3
151933.125000 496218.094000 -1.533000 3
151932.969000 496218.719000 -1.878000 3
151932.672000 496218.313000 -1.519000 3
151932.594000 496218.656000 -1.568000 3
151932.312000 496218.531000 -1.612000 3
151932.516000 496218.969000 -1.656000 3
151925.375000 496256.531000 -3.095000 4
151926.000000 496257.125000 -3.002000 4
151926.719000 496257.719000 -2.811000 4
151927.391000 496258.250000 -2.313000 4
151927.547000 496257.656000 -1.594000 4
151928.141000 496257.156000 -2.216000 4
151927.391000 496256.656000 -1.872000 4
151926.547000 496256.750000 -1.791000 4
151925.937000 496257.344000 -1.440000 4
151925.797000 496257.938000 -1.743000 4
151925.719000 496258.250000 -2.001000 4
151925.531000 496257.438000 -1.921000 4
151926.297000 496257.719000 -1.666000 4
151925.875000 496257.594000 -1.847000 4
151925.594000 496257.188000 -1.718000 4
151925.672000 496256.875000 -1.621000 4
151926.016000 496257.031000 -1.327000 4
151926.203000 496256.281000 -1.895000 4
151926.734000 496255.969000 -2.534000 4
151926.109000 496256.688000 -1.463000 4
151926.625000 496256.406000 -1.698000 4
151928.844000 496257.625000 -1.811000 4
151929.484000 496258.281000 -1.566000 4
151930.359000 496257.813000 -1.528000 4
151930.531000 496258.469000 -2.124000 4
151931.328000 496258.750000 -1.721000 4
151931.141000 496259.500000 -1.164000 4
151931.672000 496260.219000 -1.531000 4
151932.203000 496259.813000 -0.995000 4
151932.281000 496259.500000 -1.099000 4
151932.141000 496260.125000 -1.249000 4
151932.047000 496260.469000 -1.211000 4
151931.484000 496260.969000 -0.742000 4
151931.266000 496261.875000 -1.083000 4
151930.656000 496261.438000 -1.196000 4
151930.312000 496261.313000 -1.045000 4
151929.734000 496261.656000 -0.446000 4
151930.031000 496262.438000 0.060000 4
151929.422000 496262.938000 -0.453000 4
151929.750000 496263.625000 -0.992000 4
151928.875000 496263.781000 -1.085000 4
151928.672000 496262.906000 -1.466000 4
151928.375000 496262.688000 -0.584000 4
151927.750000 496262.031000 -0.326000 4
151927.094000 496261.375000 -0.070000 4
151927.672000 496260.656000 -0.404000 4
151928.469000 496260.500000 0.129000 4
151929.344000 496260.188000 0.104000 4
151929.844000 496259.906000 -0.598000 4
151929.625000 496259.094000 -0.877000 4
151930.531000 496260.406000 -0.481000 4
151930.016000 496259.219000 -1.061000 4
151929.547000 496259.406000 -0.909000 4
151929.562000 496261.031000 0.337000 4
151929.078000 496261.250000 0.461000 4
151928.672000 496261.500000 0.061000 4
151929.172000 496259.500000 -0.208000 4
151928.812000 496259.125000 -0.121000 4
151928.172000 496258.656000 -0.724000 4
151927.594000 496259.344000 -0.452000 4
151927.031000 496259.688000 -1.053000 4
151927.406000 496260.156000 -1.741000 4
151927.906000 496259.688000 -2.386000 4
151928.625000 496259.906000 -1.743000 4
151929.344000 496260.219000 -2.249000 4
151928.922000 496260.500000 -2.155000 4
151928.766000 496261.125000 -2.592000 4
151928.078000 496260.688000 -2.889000 4
151927.500000 496261.344000 -2.598000 4
151927.875000 496261.500000 -1.742000 4
151928.078000 496262.094000 -2.164000 4
151928.031000 496262.281000 -3.079000 4
151928.312000 496263.000000 -3.147000 4
151928.094000 496263.875000 -3.562000 4
151928.391000 496264.063000 -2.652000 4
151929.000000 496264.594000 -2.862000 4
151929.312000 496265.375000 -2.521000 4
