155951.203000 496949.125000 3.118000 0
155951.406000 496948.500000 3.858000 0
155952.031000 496949.000000 3.851000 0
155952.453000 496949.313000 3.050000 0
155952.266000 496949.906000 2.445000 0
155950.953000 496948.125000 4.276000 0
155951.250000 496947.938000 4.197000 0
155951.797000 496948.094000 3.567000 0
155951.000000 496948.375000 3.971000 0
155951.313000 496948.188000 3.918000 0
155952.141000 496949.438000 3.140000 0
155951.609000 496949.313000 3.925000 0
155952.078000 496949.156000 3.404000 0
155951.078000 496948.656000 3.747000 0
155951.641000 496949.438000 3.393000 0
155951.453000 496948.688000 3.388000 0
155950.703000 496948.813000 2.797000 0
155950.594000 496948.438000 2.797000 0
155950.922000 496948.094000 2.459000 0
155950.438000 496949.063000 2.020000 0
155950.688000 496948.813000 2.004000 0
155951.656000 496949.531000 0.127000 0
155950.828000 496949.344000 0.605000 0
155951.125000 496948.813000 1.572000 0
155951.125000 496948.875000 0.778000 0
155950.984000 496948.344000 1.297000 0
155950.391000 496947.688000 0.237000 0
155951.234000 496947.938000 -0.869000 0
155952.078000 496947.938000 -0.977000 0
155951.172000 496947.688000 -0.577000 0
155950.828000 496947.719000 -0.094000 0
155950.922000 496948.094000 -0.945000 0
155949.813000 496948.281000 -0.190000 0
155950.172000 496948.063000 -1.087000 0
155950.531000 496948.188000 -0.350000 0
155949.938000 496948.781000 -0.771000 0
155950.594000 496948.469000 -0.547000 0
155950.859000 496949.500000 0.033000 0
155950.578000 496949.594000 -0.257000 0
155950.406000 496948.938000 -0.815000 0
155950.578000 496949.625000 -0.980000 0
155950.922000 496949.688000 -1.164000 0
155952.141000 496948.156000 -1.354000 0
155952.219000 496948.438000 -1.492000 0
155951.281000 496949.438000 -1.301000 0
155951.313000 496948.219000 -1.126000 0
155950.938000 496948.188000 -1.595000 0
155951.172000 496949.063000 -1.351000 0
155951.875000 496948.438000 -1.747000 0
155951.922000 496948.625000 -2.209000 0
155951.078000 496948.719000 -2.952000 0
155950.969000 496948.281000 -3.104000 0
155951.688000 496947.750000 -3.278000 0
155951.953000 496947.438000 -2.978000 0
155952.141000 496948.125000 -3.142000 0
155952.406000 496947.594000 -3.076000 0
155952.500000 496947.938000 -3.170000 0
155953.203000 496947.406000 -3.336000 0
155953.281000 496947.750000 -3.360000 0
155953.391000 496948.125000 -3.381000 0
155954.094000 496948.094000 -3.401000 0
155954.000000 496947.750000 -3.307000 0
155954.250000 496947.219000 -3.228000 0
155933.016000 496941.719000 -0.642000 1
155932.344000 496941.906000 -0.156000 1
155931.734000 496942.219000 -0.881000 1
155932.234000 496942.781000 -0.807000 1
155932.641000 496943.094000 -0.114000 1
155931.984000 496943.188000 -0.429000 1
155931.469000 496942.688000 -0.356000 1
155931.438000 496942.594000 0.292000 1
155931.688000 496943.500000 0.632000 1
155931.031000 496943.688000 1.362000 1
155930.313000 496943.844000 1.738000 1
155929.594000 496944.063000 2.380000 1
155930.219000 496943.469000 2.705000 1
155930.422000 496942.844000 3.349000 1
155930.766000 496942.656000 4.264000 1
155930.609000 496943.594000 4.069000 1
155931.359000 496943.781000 3.559000 1
155931.516000 496942.844000 3.489000 1
155931.203000 496944.344000 2.840000 1
155931.063000 496945.313000 2.738000 1
155930.391000 496946.031000 2.814000 1
155929.594000 496945.813000 2.607000 1
155930.016000 496945.688000 1.803000 1
155930.094000 496946.031000 0.896000 1
155930.859000 496945.906000 0.327000 1
155930.703000 496945.344000 0.864000 1
155930.578000 496944.813000 0.522000 1
155931.188000 496944.281000 0.070000 1
155930.813000 496944.375000 -0.211000 1
155930.328000 496943.875000 -0.716000 1
155929.688000 496943.344000 -0.663000 1
155929.453000 496943.563000 -1.262000 1
155928.969000 496943.438000 -1.840000 1
155928.813000 496942.844000 -2.318000 1
155928.313000 496942.375000 -2.655000 1
155928.000000 496942.906000 -3.418000 1
155927.188000 496942.531000 -3.197000 1
155927.172000 496942.438000 -2.528000 1
155926.672000 496941.875000 -1.912000 1
155927.297000 496941.250000 -1.744000 1
155927.344000 496941.438000 -2.197000 1
155926.313000 496942.000000 -2.500000 1
155927.422000 496941.719000 -2.427000 1
155927.500000 496942.031000 -3.391000 1
155927.297000 496942.906000 -3.243000 1
155927.719000 496942.875000 -3.298000 1
155927.641000 496942.563000 -3.140000 1
155928.516000 496941.719000 -3.154000 1
155928.297000 496940.844000 -3.288000 1
155927.844000 496940.531000 -2.513000 1
155927.313000 496940.281000 -3.176000 1
155927.391000 496940.594000 -3.367000 1
155927.516000 496941.031000 -3.254000 1
155927.906000 496940.750000 -2.894000 1
155928.188000 496940.438000 -3.323000 1
155928.781000 496941.000000 -2.664000 1
155929.047000 496940.875000 -2.040000 1
155929.672000 496941.375000 -1.945000 1
155930.109000 496941.719000 -1.741000 1
155930.422000 496941.375000 -1.211000 1
155930.438000 496941.406000 -0.282000 1
155929.969000 496941.156000 0.408000 1
155930.172000 496940.406000 0.989000 1
155930.953000 496940.719000 1.364000 1
155931.422000 496941.031000 1.548000 1
155931.922000 496940.281000 1.353000 1
155931.500000 496940.000000 0.645000 1
155931.344000 496939.375000 0.966000 1
155931.344000 496939.375000 1.861000 1
155930.953000 496939.188000 2.698000 1
155930.609000 496939.375000 2.650000 1
155930.797000 496940.063000 3.315000 1
155931.219000 496940.188000 4.085000 1
155931.375000 496940.813000 4.631000 1
155931.234000 496941.781000 4.600000 1
155931.094000 496941.219000 4.147000 1
155931.188000 496941.563000 3.259000 1
155931.953000 496941.719000 2.737000 1
155931.734000 496942.219000 2.519000 1
155931.422000 496942.500000 1.732000 1
155931.500000 496942.781000 1.544000 1
155932.297000 496943.063000 1.535000 1
155932.031000 496943.375000 1.665000 1
155930.938000 496942.125000 2.444000 1
155930.109000 496941.688000 2.421000 1
155930.266000 496940.719000 2.555000 1
155929.703000 496940.156000 2.325000 1
155929.531000 496939.438000 1.694000 1
155928.672000 496939.406000 1.685000 1
155928.250000 496938.906000 2.128000 1
155927.828000 496939.000000 1.248000 1
155928.344000 496939.281000 0.447000 1
155928.438000 496939.625000 -0.439000 1
155928.719000 496939.625000 -1.302000 1
155928.516000 496939.969000 -1.517000 1
155928.813000 496939.969000 -1.392000 1
155927.563000 496939.438000 -0.578000 1
155927.953000 496939.563000 -0.992000 1
155928.484000 496939.844000 -0.895000 1
155929.078000 496939.063000 0.522000 1
155928.703000 496939.531000 0.146000 1
155928.391000 496939.500000 0.081000 1
155928.234000 496938.844000 0.368000 1
155927.969000 496939.563000 0.707000 1
155928.125000 496940.156000 1.242000 1
155928.234000 496940.563000 1.283000 1
155928.641000 496940.406000 2.086000 1
155928.203000 496940.438000 2.619000 1
155927.469000 496940.813000 3.084000 1
155927.766000 496940.156000 3.657000 1
155927.891000 496939.250000 3.484000 1
155927.797000 496938.906000 4.417000 1
155926.969000 496938.906000 3.957000 1
155926.313000 496939.063000 4.586000 1
155926.172000 496939.875000 4.848000 1
155926.391000 496940.750000 5.119000 1
155926.406000 496940.781000 4.399000 1
155926.953000 496941.531000 4.050000 1
155927.547000 496942.156000 4.502000 1
155927.781000 496943.031000 4.822000 1
155928.063000 496943.094000 3.996000 1
155928.250000 496943.813000 3.870000 1
155928.797000 496944.125000 4.603000 1
155928.984000 496943.406000 5.062000 1
155928.828000 496942.844000 4.604000 1
155928.734000 496942.500000 4.659000 1
155929.016000 496941.844000 4.487000 1
155929.000000 496941.813000 3.491000 1
155928.313000 496942.313000 3.185000 1
155927.781000 496942.031000 2.512000 1
155927.891000 496942.406000 1.605000 1
155927.703000 496942.781000 0.834000 1
155927.828000 496943.219000 0.126000 1
155928.266000 496943.906000 0.570000 1
155928.500000 496944.813000 0.833000 1
155928.219000 496944.688000 1.681000 1
155928.219000 496944.750000 2.670000 1
155928.516000 496944.844000 3.598000 1
155929.016000 496945.000000 3.248000 1
155929.734000 496944.625000 3.683000 1
155930.547000 496944.719000 3.701000 1
155929.563000 496943.938000 3.973000 1
155929.641000 496943.125000 3.985000 1
155929.703000 496944.469000 4.249000 1
155929.688000 496944.406000 4.983000 1
155929.906000 496944.125000 5.237000 1
155929.953000 496944.313000 4.906000 1
155930.063000 496944.750000 3.313000 1
155930.031000 496944.625000 3.860000 1
155927.594000 496944.000000 2.617000 1
155927.063000 496943.281000 2.210000 1
155926.781000 496943.750000 1.462000 1
155926.297000 496944.594000 1.242000 1
155925.828000 496944.188000 1.903000 1
155926.250000 496944.438000 2.623000 1
155925.609000 496943.375000 1.706000 1
155926.047000 496943.625000 2.512000 1
155925.891000 496943.031000 2.914000 1
155926.328000 496943.094000 3.509000 1
155926.625000 496943.094000 4.361000 1
155927.188000 496943.813000 4.193000 1
155926.625000 496944.250000 3.624000 1
155927.219000 496943.906000 3.617000 1
155926.531000 496943.875000 3.682000 1
155927.031000 496943.188000 3.669000 1
155926.016000 496943.500000 3.982000 1
155926.281000 496942.906000 4.067000 1
155926.125000 496943.938000 2.376000 1
155925.734000 496943.844000 1.935000 1
155926.063000 496943.719000 1.016000 1
155926.531000 496943.906000 0.193000 1
155927.266000 496944.094000 0.570000 1
155926.656000 496943.250000 0.344000 1
155926.234000 496944.344000 1.570000 1
155927.203000 496943.844000 0.825000 1
155926.672000 496944.406000 1.334000 1
155926.250000 496942.844000 2.134000 1
155927.172000 496943.719000 1.425000 1
155926.328000 496943.125000 1.979000 1
155926.703000 496943.438000 1.552000 1
155927.313000 496942.938000 2.747000 1
155926.719000 496943.500000 2.632000 1
155927.313000 496944.250000 3.424000 1
155927.453000 496943.438000 3.162000 1
155926.844000 496943.938000 2.688000 1
155928.563000 496945.031000 3.089000 1
155927.719000 496944.469000 2.867000 1
155928.156000 496944.469000 2.895000 1
155928.656000 496945.344000 2.070000 1
155928.813000 496945.969000 1.828000 1
155928.516000 496945.844000 1.639000 1
155928.734000 496945.688000 2.065000 1
155927.734000 496944.531000 2.221000 1
155927.891000 496945.188000 1.873000 1
155929.359000 496944.938000 0.640000 1
155929.266000 496944.563000 1.528000 1
155928.281000 496945.000000 1.449000 1
155927.703000 496944.469000 0.281000 1
155928.438000 496944.531000 1.056000 1
155928.641000 496943.531000 0.843000 1
155927.969000 496943.781000 0.546000 1
155927.516000 496943.719000 0.382000 1
155927.359000 496943.156000 -0.076000 1
155927.016000 496943.125000 0.943000 1
155928.125000 496943.375000 1.057000 1
155927.719000 496942.844000 0.132000 1
155927.234000 496942.656000 0.500000 1
155927.344000 496943.063000 0.515000 1
155928.016000 496942.906000 0.965000 1
155927.656000 496942.594000 1.263000 1
155927.031000 496941.844000 2.894000 1
155926.297000 496941.875000 3.335000 1
155925.500000 496941.531000 2.997000 1
155925.688000 496940.625000 3.270000 1
155925.891000 496940.313000 2.389000 1
155925.656000 496939.406000 2.104000 1
155926.250000 496938.844000 2.278000 1
155926.500000 496938.125000 2.355000 1
155927.234000 496938.188000 1.807000 1
155927.969000 496937.844000 2.362000 1
155926.672000 496937.813000 1.516000 1
155926.781000 496938.219000 1.516000 1
155927.156000 496937.875000 1.834000 1
155926.500000 496938.156000 1.563000 1
155924.891000 496939.219000 2.148000 1
155924.656000 496939.719000 2.015000 1
155924.797000 496940.219000 1.550000 1
155924.172000 496940.688000 1.092000 1
155924.688000 496941.500000 0.850000 1
155925.484000 496941.500000 1.320000 1
155926.281000 496941.813000 1.482000 1
155926.516000 496941.219000 0.970000 1
155926.531000 496941.250000 1.920000 1
155925.906000 496941.469000 1.708000 1
155924.594000 496939.406000 2.288000 1
155926.313000 496939.125000 2.059000 1
155924.969000 496939.531000 1.963000 1
155925.250000 496938.969000 2.142000 1
155925.531000 496938.938000 1.913000 1
155925.406000 496939.594000 1.838000 1
155925.344000 496939.344000 2.196000 1
155925.547000 496941.719000 2.620000 1
155925.406000 496941.156000 3.134000 1
155926.031000 496941.938000 2.781000 1
155925.984000 496941.781000 3.230000 1
155926.359000 496942.125000 3.124000 1
155926.734000 496942.063000 2.839000 1
155927.641000 496942.531000 2.836000 1
155928.047000 496943.000000 2.918000 1
155927.594000 496942.344000 3.237000 1
155929.625000 496941.188000 3.504000 1
155930.109000 496941.688000 4.146000 1
155929.453000 496940.531000 3.729000 1
155928.781000 496939.875000 3.550000 1
155929.844000 496940.656000 4.357000 1
155930.016000 496941.313000 4.071000 1
155929.891000 496940.844000 3.886000 1
155928.219000 496941.938000 3.161000 1
155929.781000 496941.781000 3.994000 1
155929.313000 496941.844000 3.656000 1
155929.297000 496942.906000 5.017000 1
155929.406000 496943.344000 5.142000 1
155929.344000 496944.781000 4.664000 1
155929.266000 496944.500000 4.919000 1
155928.922000 496944.625000 4.951000 1
155928.891000 496944.469000 3.779000 1
155927.703000 496944.469000 3.632000 1
155928.688000 496943.719000 4.609000 1
155928.453000 496944.563000 3.732000 1
155928.047000 496944.063000 3.725000 1
155927.938000 496943.656000 3.679000 1
155927.797000 496943.094000 4.070000 1
155928.484000 496942.938000 4.608000 1
155927.469000 496943.500000 4.861000 1
155927.375000 496943.156000 5.008000 1
155927.234000 496942.594000 3.794000 1
155928.000000 496942.813000 4.251000 1
155927.859000 496942.313000 3.879000 1
155927.609000 496942.375000 4.163000 1
155927.781000 496942.000000 4.118000 1
155926.688000 496941.813000 4.124000 1
155926.172000 496941.375000 3.894000 1
155926.609000 496941.531000 4.380000 1
155926.094000 496941.094000 4.106000 1
155926.859000 496941.188000 4.837000 1
155926.063000 496940.969000 4.764000 1
155926.406000 496939.469000 4.570000 1
155926.516000 496939.906000 3.755000 1
155927.203000 496938.063000 4.008000 1
155927.516000 496937.844000 3.776000 1
155926.828000 496939.406000 3.508000 1
155926.766000 496939.156000 3.825000 1
155927.297000 496938.406000 3.864000 1
155928.500000 496938.750000 4.450000 1
155929.016000 496938.844000 4.257000 1
155928.094000 496938.344000 4.352000 1
155927.703000 496938.531000 4.455000 1
155927.031000 496939.125000 3.531000 1
155928.688000 496939.438000 3.501000 1
155928.250000 496938.875000 3.833000 1
155928.438000 496939.656000 3.765000 1
155927.188000 496939.750000 3.327000 1
155928.156000 496940.250000 4.033000 1
155927.031000 496940.188000 3.529000 1
155927.875000 496940.594000 3.729000 1
155927.344000 496940.344000 2.907000 1
155927.906000 496940.750000 3.151000 1
155928.125000 496940.156000 2.952000 1
155928.578000 496940.156000 2.393000 1
155927.859000 496939.156000 0.701000 1
155927.672000 496938.438000 2.584000 1
155928.406000 496939.531000 2.690000 1
155927.781000 496938.844000 1.729000 1
155928.609000 496939.219000 2.101000 1
155929.406000 496938.969000 2.271000 1
155929.734000 496938.688000 3.119000 1
155929.922000 496938.250000 2.389000 1
155929.234000 496938.344000 2.589000 1
155929.641000 496938.375000 2.396000 1
155929.359000 496938.844000 2.854000 1
155929.141000 496939.313000 1.974000 1
155929.516000 496940.750000 1.673000 1
155929.500000 496939.313000 2.234000 1
155928.844000 496940.094000 2.283000 1
155929.484000 496940.656000 2.354000 1
155930.984000 496940.844000 2.492000 1
155929.734000 496941.594000 1.828000 1
155929.984000 496941.219000 2.236000 1
155929.750000 496941.656000 2.784000 1
155930.156000 496941.875000 2.046000 1
155930.266000 496942.281000 2.072000 1
155932.016000 496941.969000 2.485000 1
155931.469000 496941.156000 2.736000 1
155931.266000 496941.875000 2.995000 1
155930.375000 496941.188000 3.560000 1
155930.375000 496941.156000 4.313000 1
155931.422000 496940.969000 4.020000 1
155930.984000 496940.813000 4.037000 1
155930.625000 496940.906000 3.112000 1
155931.563000 496940.188000 3.677000 1
155930.094000 496940.125000 3.751000 1
155931.250000 496940.313000 3.496000 1
155930.375000 496939.969000 3.651000 1
155930.438000 496940.219000 2.430000 1
155930.391000 496940.063000 3.027000 1
155931.672000 496939.313000 2.544000 1
155930.875000 496938.938000 2.128000 1
155931.188000 496938.813000 2.183000 1
155931.016000 496939.438000 2.403000 1
155931.297000 496939.188000 2.285000 1
155931.391000 496939.594000 0.519000 1
155931.703000 496939.469000 1.196000 1
155932.219000 496939.938000 0.936000 1
155931.813000 496939.906000 1.249000 1
155931.203000 496940.188000 1.435000 1
155930.438000 496940.219000 1.585000 1
155929.766000 496940.375000 1.240000 1
155930.094000 496940.125000 1.184000 1
155929.516000 496940.781000 0.857000 1
155929.953000 496941.063000 1.067000 1
155930.703000 496941.281000 0.506000 1
155930.578000 496940.781000 -0.604000 1
155930.250000 496940.719000 -0.963000 1
155929.188000 496941.406000 -2.413000 1
155929.078000 496941.000000 -2.550000 1
155929.297000 496941.875000 -3.162000 1
155929.219000 496941.563000 -3.059000 1
155928.875000 496941.375000 -2.679000 1
155929.016000 496941.906000 -3.208000 1
155928.438000 496941.406000 -2.938000 1
155928.156000 496941.750000 -3.155000 1
155927.922000 496942.625000 -3.264000 1
155927.844000 496942.281000 -3.021000 1
155928.422000 496942.750000 -2.718000 1
155929.313000 496943.031000 -1.547000 1
155929.766000 496943.656000 -0.798000 1
155929.891000 496944.125000 -0.653000 1
155930.406000 496944.188000 -0.911000 1
155930.375000 496945.938000 0.046000 1
155930.859000 496945.906000 1.184000 1
155930.359000 496945.906000 0.784000 1
155929.813000 496944.906000 1.733000 1
155930.109000 496946.031000 1.755000 1
155929.719000 496946.281000 1.924000 1
155929.109000 496945.375000 2.265000 1
155929.469000 496945.313000 2.353000 1
155929.313000 496946.156000 2.289000 1
155929.219000 496945.813000 2.403000 1
155929.688000 496946.156000 2.502000 1
155930.047000 496945.781000 2.946000 1
155930.484000 496946.375000 2.722000 1
155930.172000 496945.156000 2.529000 1
155930.609000 496944.938000 3.422000 1
155930.281000 496945.594000 2.645000 1
155930.688000 496945.250000 3.263000 1
155930.766000 496945.563000 2.222000 1
155931.125000 496945.563000 2.443000 1
155930.734000 496945.438000 2.786000 1
155930.953000 496944.906000 3.587000 1
155931.375000 496945.000000 2.612000 1
155931.328000 496944.813000 3.103000 1
155931.547000 496944.500000 2.504000 1
155931.141000 496944.094000 3.136000 1
155930.469000 496944.375000 3.898000 1
155931.078000 496943.875000 3.506000 1
155930.766000 496944.188000 3.790000 1
155930.672000 496943.844000 3.852000 1
155931.313000 496942.063000 4.399000 1
155931.109000 496942.750000 4.647000 1
155930.703000 496942.406000 4.520000 1
155930.672000 496942.313000 2.583000 1
155930.266000 496943.594000 3.800000 1
155930.422000 496942.844000 4.206000 1
155931.188000 496943.063000 3.660000 1
155931.109000 496942.750000 3.848000 1
155930.953000 496942.219000 3.405000 1
155930.172000 496943.250000 3.858000 1
155930.031000 496942.719000 3.546000 1
155930.891000 496943.156000 2.777000 1
155929.078000 496943.781000 2.413000 1
155929.656000 496944.313000 2.203000 1
155929.719000 496944.531000 1.833000 1
155929.750000 496943.563000 2.378000 1
155930.297000 496943.750000 2.487000 1
155931.500000 496944.313000 1.190000 1
155931.594000 496943.188000 1.619000 1
155930.344000 496943.938000 1.223000 1
155931.188000 496944.281000 1.017000 1
155931.391000 496943.875000 1.933000 1
155931.266000 496943.438000 1.871000 1
155930.641000 496943.750000 0.966000 1
155930.578000 496943.469000 1.210000 1
155932.375000 496943.313000 1.221000 1
155931.625000 496943.313000 1.034000 1
155931.344000 496943.688000 0.742000 1
155932.031000 496943.313000 0.716000 1
155931.766000 496942.313000 1.008000 1
155931.844000 496942.625000 0.890000 1
155932.578000 496942.813000 0.156000 1
155932.234000 496942.813000 0.117000 1
155932.500000 496941.031000 -0.019000 1
155931.859000 496941.344000 0.223000 1
155932.344000 496941.938000 -0.918000 1
155932.719000 496941.875000 -0.008000 1
155932.641000 496941.531000 -0.744000 1
155926.578000 496928.219000 -1.759000 2
155925.813000 496928.469000 -1.223000 2
155924.969000 496928.125000 -1.450000 2
155924.281000 496928.625000 -1.635000 2
155924.234000 496929.469000 -2.139000 2
155923.859000 496929.750000 -2.399000 2
155923.953000 496930.125000 -3.253000 2
155924.484000 496929.469000 -3.186000 2
155924.406000 496929.125000 -3.066000 2
155924.297000 496929.719000 -3.301000 2
155923.641000 496930.219000 -2.839000 2
155923.891000 496929.844000 -3.002000 2
155924.844000 496929.063000 -2.220000 2
155925.281000 496929.313000 -1.391000 2
155924.625000 496929.938000 -1.306000 2
155923.844000 496929.656000 -0.943000 2
155923.703000 496930.469000 -1.397000 2
155923.344000 496929.063000 -1.093000 2
155922.859000 496929.844000 -0.968000 2
155922.688000 496929.156000 -0.762000 2
155922.750000 496929.438000 -1.033000 2
155922.969000 496929.156000 -0.864000 2
155923.078000 496929.531000 -0.944000 2
155923.641000 496930.250000 -1.075000 2
155923.422000 496929.375000 -1.219000 2
155925.172000 496930.313000 -1.922000 2
155924.078000 496930.594000 -1.379000 2
155924.797000 496930.594000 -1.523000 2
155924.484000 496930.438000 -1.740000 2
155924.391000 496930.063000 -0.893000 2
155924.688000 496930.188000 -1.586000 2
155924.422000 496930.188000 -1.315000 2
155925.094000 496930.000000 -0.991000 2
155925.109000 496930.063000 -1.643000 2
155925.438000 496929.875000 -1.041000 2
155925.016000 496929.656000 -0.900000 2
155925.313000 496929.406000 -2.061000 2
155924.172000 496929.250000 -1.714000 2
155924.031000 496928.719000 -1.297000 2
155924.328000 496928.813000 -1.969000 2
155924.203000 496928.344000 -1.287000 2
155923.984000 496927.469000 -1.539000 2
155923.250000 496927.406000 -1.602000 2
155923.000000 496927.750000 -1.400000 2
155923.344000 496927.750000 -1.704000 2
155923.688000 496927.406000 -1.587000 2
155923.781000 496927.750000 -1.690000 2
155924.750000 496928.688000 -1.312000 2
155924.844000 496927.656000 -1.667000 2
155924.547000 496927.875000 -1.329000 2
155924.625000 496928.188000 -1.559000 2
155925.641000 496928.938000 -1.949000 2
155925.344000 496927.813000 -0.971000 2
155925.594000 496927.656000 -1.223000 2
155925.172000 496928.906000 -1.438000 2
155925.109000 496928.656000 -1.173000 2
155925.422000 496928.094000 -1.198000 2
155925.578000 496928.719000 -1.606000 2
155925.719000 496928.125000 -0.998000 2
155925.500000 496928.438000 -1.353000 2
155925.906000 496928.875000 -1.984000 2
155925.859000 496928.688000 -1.561000 2
155926.406000 496928.844000 -1.549000 2
155926.297000 496928.469000 -1.580000 2
155927.109000 496933.438000 -2.111000 3
155926.688000 496932.969000 -1.493000 3
155926.031000 496933.563000 -1.763000 3
155925.422000 496933.000000 -1.310000 3
155924.672000 496932.844000 -0.676000 3
155924.328000 496932.875000 -1.164000 3
155924.172000 496933.750000 -1.063000 3
155924.516000 496933.531000 -1.433000 3
155924.016000 496933.156000 -1.500000 3
155924.594000 496932.563000 -0.440000 3
155924.000000 496933.094000 0.034000 3
155923.469000 496933.750000 0.291000 3
155922.641000 496933.688000 0.745000 3
155922.094000 496934.188000 0.969000 3
155922.609000 496934.719000 0.838000 3
155921.813000 496934.656000 0.583000 3
155921.250000 496935.063000 0.198000 3
155921.703000 496935.656000 -0.444000 3
155921.219000 496934.938000 -0.924000 3
155921.266000 496934.000000 -0.713000 3
155920.484000 496933.406000 -0.781000 3
155920.906000 496932.594000 -1.127000 3
155920.891000 496932.563000 -2.086000 3
155919.984000 496932.875000 -2.306000 3
155919.375000 496933.188000 -2.924000 3
155919.719000 496933.375000 -3.363000 3
155919.938000 496934.219000 -3.168000 3
155919.766000 496932.031000 -2.397000 3
155919.359000 496931.969000 -1.489000 3
155918.891000 496931.281000 -1.137000 3
155918.359000 496930.813000 -1.835000 3
155917.984000 496930.656000 -1.258000 3
155917.781000 496931.438000 -0.780000 3
155917.250000 496932.094000 -1.116000 3
155917.766000 496932.500000 -1.868000 3
155917.031000 496932.656000 -2.036000 3
155918.344000 496932.031000 -1.712000 3
155917.516000 496933.125000 -2.204000 3
155917.922000 496933.094000 -2.280000 3
155918.391000 496932.250000 -1.983000 3
155918.141000 496932.813000 -2.101000 3
155917.453000 496932.844000 -1.934000 3
155917.844000 496932.813000 -2.006000 3
155918.063000 496932.531000 -1.816000 3
155917.359000 496932.469000 -1.940000 3
155918.031000 496932.406000 -1.224000 3
155916.953000 496932.406000 -1.792000 3
155917.750000 496932.500000 -1.040000 3
155916.922000 496932.250000 -1.346000 3
155917.313000 496932.344000 -1.442000 3
155917.703000 496932.281000 -0.670000 3
155917.969000 496932.156000 -0.932000 3
155917.188000 496931.875000 -0.738000 3
155917.594000 496931.875000 -0.750000 3
155917.875000 496931.781000 -0.856000 3
155917.516000 496931.531000 -0.645000 3
155917.703000 496931.125000 -0.675000 3
155918.953000 496930.406000 -1.429000 3
155919.188000 496929.813000 -1.482000 3
155919.984000 496930.219000 -1.824000 3
155920.063000 496930.500000 -1.201000 3
155920.250000 496931.188000 -1.451000 3
155920.063000 496931.844000 -0.759000 3
155919.969000 496931.469000 -0.686000 3
155920.641000 496931.594000 -0.831000 3
155921.313000 496931.219000 -1.324000 3
155921.953000 496931.063000 -0.857000 3
155921.156000 496930.625000 -0.862000 3
155921.641000 496930.969000 -0.716000 3
155921.734000 496931.375000 -1.465000 3
155921.688000 496931.188000 -1.097000 3
155921.250000 496930.969000 -1.003000 3
155920.891000 496931.125000 -1.190000 3
155919.859000 496931.031000 -0.892000 3
155920.094000 496930.594000 -1.915000 3
155920.203000 496929.938000 -1.859000 3
155919.891000 496929.813000 -1.784000 3
155919.813000 496929.531000 -1.637000 3
155919.516000 496929.719000 -1.982000 3
155919.453000 496929.469000 -1.754000 3
155918.234000 496931.656000 -1.641000 3
155918.141000 496931.250000 -0.802000 3
155919.438000 496930.781000 -1.013000 3
155918.188000 496931.438000 -1.214000 3
155918.500000 496931.344000 -1.430000 3
155919.125000 496931.063000 -0.888000 3
155919.281000 496932.813000 -1.177000 3
155918.891000 496932.813000 -0.854000 3
155919.844000 496932.344000 -0.917000 3
155918.766000 496932.344000 -1.902000 3
155918.625000 496931.781000 -1.393000 3
155918.719000 496932.156000 -1.451000 3
155919.000000 496931.719000 -1.054000 3
155919.469000 496932.375000 -1.320000 3
155919.156000 496932.344000 -1.340000 3
155919.047000 496931.906000 -1.462000 3
155919.500000 496932.500000 -1.883000 3
155919.984000 496932.938000 -3.039000 3
155920.547000 496932.344000 -3.162000 3
155921.156000 496932.156000 -3.185000 3
155920.422000 496931.875000 -3.326000 3
155920.734000 496932.000000 -3.344000 3
155920.859000 496932.438000 -3.331000 3
155920.625000 496932.656000 -3.299000 3
155920.141000 496933.469000 -2.647000 3
155919.625000 496933.000000 -2.528000 3
155919.563000 496932.781000 -2.224000 3
155920.406000 496933.156000 -2.154000 3
155921.141000 496933.531000 -2.536000 3
155921.875000 496933.406000 -3.172000 3
155922.688000 496933.875000 -3.280000 3
155922.453000 496934.125000 -3.098000 3
155921.766000 496932.969000 -3.297000 3
155921.953000 496933.688000 -3.407000 3
155921.672000 496934.156000 -3.035000 3
155921.250000 496933.969000 -3.342000 3
155921.547000 496933.688000 -3.269000 3
155920.953000 496933.906000 -3.158000 3
155921.188000 496933.719000 -3.047000 3
155920.297000 496932.750000 -2.249000 3
155920.656000 496932.750000 -2.253000 3
155921.672000 496932.594000 -1.630000 3
155920.141000 496932.125000 -1.013000 3
155921.203000 496932.313000 -0.338000 3
155921.203000 496932.281000 0.560000 3
155922.063000 496932.594000 0.345000 3
155921.484000 496933.375000 0.422000 3
155921.203000 496933.750000 0.500000 3
155922.813000 496932.594000 0.047000 3
155923.141000 496932.531000 -0.674000 3
155923.016000 496932.000000 -0.106000 3
155923.078000 496932.281000 -0.369000 3
155922.266000 496932.250000 0.142000 3
155921.422000 496933.125000 0.628000 3
155922.000000 496932.406000 0.774000 3
155921.359000 496932.906000 0.998000 3
155921.641000 496932.469000 0.654000 3
155920.703000 496931.844000 -1.036000 3
155920.234000 496932.469000 -1.093000 3
155920.500000 496932.156000 -1.100000 3
155920.797000 496932.188000 -1.257000 3
155921.203000 496932.344000 -1.105000 3
155920.578000 496932.469000 -1.198000 3
155920.578000 496933.781000 -1.612000 3
155919.703000 496933.250000 -1.155000 3
155920.313000 496934.156000 -1.186000 3
155920.219000 496933.813000 -1.086000 3
155920.719000 496933.000000 -0.868000 3
155920.672000 496934.156000 0.048000 3
155920.141000 496934.969000 0.133000 3
155919.938000 496935.313000 -0.708000 3
155920.344000 496935.750000 -0.666000 3
155920.219000 496935.219000 -0.906000 3
155919.563000 496935.406000 -0.330000 3
155918.906000 496935.719000 0.153000 3
155918.172000 496935.594000 0.750000 3
155917.578000 496936.281000 1.124000 3
155917.109000 496935.938000 0.666000 3
155916.922000 496936.844000 0.331000 3
155916.656000 496937.188000 -0.537000 3
155917.391000 496937.000000 -1.174000 3
155918.219000 496937.250000 -1.290000 3
155918.828000 496936.594000 -1.425000 3
155918.422000 496936.594000 -0.528000 3
155918.109000 496936.813000 0.308000 3
155919.500000 496936.500000 -2.136000 3
155919.594000 496936.844000 -3.030000 3
155919.344000 496937.406000 -3.095000 3
155918.828000 496938.156000 -2.973000 3
155918.531000 496938.438000 -2.104000 3
155917.719000 496938.219000 -1.916000 3
155917.125000 496938.969000 -1.765000 3
155916.531000 496938.406000 -1.853000 3
155916.813000 496937.781000 -1.836000 3
155916.203000 496938.438000 -1.730000 3
155917.625000 496939.531000 -1.435000 3
155918.203000 496940.125000 -1.028000 3
155918.000000 496940.969000 -0.763000 3
155917.750000 496941.406000 -0.734000 3
155918.078000 496941.313000 -0.888000 3
155918.828000 496939.563000 -1.356000 3
155919.375000 496940.250000 -1.004000 3
155919.969000 496939.813000 -0.347000 3
155920.547000 496940.500000 -0.769000 3
155920.672000 496939.625000 -1.115000 3
155921.453000 496940.000000 -1.511000 3
155921.641000 496939.250000 -2.011000 3
155920.922000 496939.094000 -2.663000 3
155920.063000 496938.656000 -2.398000 3
155920.828000 496938.688000 -1.764000 3
155921.125000 496938.750000 -0.937000 3
155921.766000 496938.375000 -0.977000 3
155921.250000 496937.750000 -0.893000 3
155921.453000 496937.188000 -0.134000 3
155920.672000 496937.000000 0.449000 3
155919.844000 496936.500000 0.360000 3
155920.438000 496936.063000 0.949000 3
155921.203000 496936.188000 1.184000 3
155921.922000 496936.531000 0.600000 3
155922.266000 496936.406000 0.243000 3
155922.594000 496936.125000 -0.639000 3
155922.344000 496936.688000 -0.785000 3
155921.109000 496935.844000 1.173000 3
155920.813000 496936.063000 1.253000 3
155919.500000 496936.500000 -0.360000 3
155920.078000 496937.375000 -0.191000 3
155920.156000 496937.688000 -0.390000 3
155920.875000 496936.313000 0.996000 3
155920.203000 496936.313000 0.684000 3
155919.922000 496936.781000 0.203000 3
155920.531000 496936.438000 0.861000 3
155920.266000 496936.531000 0.259000 3
155920.953000 496936.594000 0.780000 3
155920.328000 496936.813000 0.102000 3
155920.438000 496937.188000 0.071000 3
155920.500000 496937.438000 -0.220000 3
155922.016000 496936.844000 0.395000 3
155921.031000 496936.906000 0.533000 3
155920.750000 496937.313000 0.246000 3
155921.688000 496936.688000 0.403000 3
155921.297000 496936.531000 0.155000 3
155922.016000 496936.875000 -0.330000 3
155921.094000 496937.156000 0.229000 3
155921.359000 496936.781000 -0.121000 3
155921.813000 496937.156000 -0.239000 3
155920.563000 496937.719000 -0.503000 3
155921.547000 496937.531000 -0.237000 3
155920.875000 496937.781000 -0.491000 3
155921.188000 496937.531000 -0.615000 3
155921.594000 496937.688000 -0.750000 3
155920.203000 496939.219000 -2.026000 3
155921.938000 496939.031000 -1.218000 3
155921.516000 496938.750000 -1.333000 3
155920.891000 496938.969000 -2.052000 3
155921.609000 496939.156000 -1.319000 3
155921.266000 496939.250000 -0.639000 3
155920.453000 496938.813000 -1.163000 3
155921.375000 496939.688000 -1.332000 3
155921.047000 496939.594000 -0.647000 3
155921.078000 496939.688000 -1.333000 3
155920.719000 496939.813000 -1.495000 3
155920.563000 496939.219000 -1.090000 3
155921.219000 496940.188000 -1.017000 3
155920.859000 496940.375000 -1.114000 3
155919.484000 496939.125000 -0.134000 3
155919.641000 496938.563000 0.317000 3
155919.813000 496939.219000 0.939000 3
155919.828000 496939.281000 1.932000 3
155920.078000 496938.688000 2.694000 3
155919.344000 496940.125000 2.149000 3
155919.172000 496940.844000 1.535000 3
155918.313000 496940.500000 1.509000 3
155918.328000 496940.563000 2.438000 3
155917.797000 496940.188000 0.893000 3
155918.125000 496939.813000 1.623000 3
155918.828000 496939.563000 1.225000 3
155918.672000 496938.969000 0.835000 3
155918.219000 496938.719000 1.499000 3
155917.906000 496938.969000 2.300000 3
155918.484000 496938.250000 2.668000 3
155919.031000 496938.906000 2.908000 3
155918.734000 496937.781000 2.097000 3
155919.234000 496936.969000 2.036000 3
155919.922000 496936.781000 1.940000 3
155918.844000 496936.625000 2.086000 3
155918.156000 496936.969000 2.406000 3
155917.828000 496937.281000 2.449000 3
155918.266000 496937.375000 3.316000 3
155918.688000 496936.031000 1.609000 3
155919.188000 496935.281000 1.276000 3
155919.516000 496935.219000 1.060000 3
155918.891000 496935.688000 1.653000 3
155918.328000 496936.188000 2.069000 3
155918.516000 496936.906000 1.968000 3
155919.531000 496938.094000 1.872000 3
155919.406000 496937.625000 2.573000 3
155919.422000 496937.719000 1.934000 3
155919.219000 496938.094000 1.911000 3
155918.359000 496937.750000 3.246000 3
155917.984000 496937.844000 2.820000 3
155918.078000 496938.219000 2.831000 3
155918.750000 496939.219000 2.316000 3
155918.500000 496938.313000 1.994000 3
155917.906000 496938.969000 0.634000 3
155918.359000 496939.281000 1.944000 3
155918.078000 496939.625000 2.084000 3
155917.797000 496940.188000 1.727000 3
155918.672000 496940.500000 1.169000 3
155919.016000 496940.281000 1.189000 3
155918.797000 496941.000000 1.358000 3
155918.906000 496939.844000 2.773000 3
155918.594000 496940.219000 2.204000 3
155919.031000 496940.313000 2.084000 3
155920.516000 496939.031000 2.606000 3
155921.219000 496939.063000 2.388000 3
155921.125000 496938.750000 1.645000 3
155921.109000 496938.656000 0.685000 3
155921.297000 496939.406000 1.359000 3
155920.813000 496938.625000 1.532000 3
155920.984000 496939.281000 2.164000 3
155919.734000 496938.906000 2.750000 3
155919.063000 496939.031000 2.304000 3
155920.594000 496939.344000 1.665000 3
155919.234000 496939.656000 1.980000 3
155920.125000 496938.875000 2.330000 3
155920.313000 496939.563000 2.163000 3
155919.766000 496939.000000 2.151000 3
155919.078000 496939.094000 1.596000 3
155919.125000 496939.281000 0.306000 3
155920.484000 496940.250000 -0.479000 3
155920.109000 496940.375000 0.020000 3
155919.875000 496940.594000 0.518000 3
155920.141000 496940.469000 1.091000 3
155919.922000 496940.781000 0.182000 3
155919.688000 496939.906000 -0.134000 3
155919.172000 496940.906000 -0.883000 3
155918.422000 496940.938000 -0.908000 3
155918.703000 496940.625000 -1.170000 3
155917.875000 496940.531000 -0.914000 3
155918.313000 496940.531000 -0.959000 3
155918.531000 496939.938000 -0.964000 3
155916.922000 496939.906000 -1.050000 3
155916.219000 496940.094000 -0.852000 3
155916.484000 496939.500000 -1.164000 3
155916.609000 496939.969000 -0.918000 3
155916.984000 496940.094000 -1.476000 3
155917.469000 496940.313000 -1.373000 3
155918.375000 496939.344000 -1.366000 3
155918.078000 496939.625000 -1.267000 3
155917.359000 496939.906000 -1.443000 3
155917.281000 496939.594000 -1.264000 3
155916.328000 496938.875000 -1.628000 3
155917.531000 496939.188000 -1.344000 3
155916.656000 496938.906000 -1.534000 3
155916.750000 496939.219000 -1.694000 3
155917.016000 496938.594000 -1.798000 3
155916.922000 496938.188000 -1.849000 3
155917.172000 496937.781000 -1.819000 3
155917.391000 496938.625000 -1.719000 3
155917.266000 496938.188000 -1.862000 3
155917.609000 496937.813000 -1.935000 3
155919.297000 496938.375000 -1.807000 3
155917.984000 496937.875000 -2.141000 3
155917.797000 496938.563000 -1.986000 3
155918.141000 496938.500000 -2.416000 3
155918.047000 496938.125000 -2.455000 3
155918.750000 496937.813000 -2.112000 3
155918.656000 496938.938000 -2.769000 3
155918.453000 496939.688000 -3.295000 3
155918.641000 496940.406000 -3.389000 3
155918.906000 496939.906000 -3.128000 3
155918.563000 496940.125000 -3.206000 3
155918.234000 496938.875000 -3.363000 3
155919.109000 496939.250000 -3.210000 3
155918.828000 496939.563000 -3.010000 3
155918.734000 496939.250000 -2.947000 3
155918.594000 496938.656000 -2.428000 3
155918.797000 496938.031000 -2.468000 3
155919.516000 496938.094000 -3.301000 3
155919.219000 496938.125000 -3.204000 3
155919.094000 496937.625000 -2.582000 3
155919.141000 496937.781000 -3.130000 3
155920.344000 496936.875000 -2.379000 3
155920.094000 496937.438000 -1.689000 3
155920.516000 496937.500000 -2.695000 3
155920.938000 496938.031000 -3.317000 3
155921.797000 496938.469000 -3.327000 3
155922.063000 496938.156000 -3.165000 3
155922.547000 496937.500000 -3.240000 3
155921.969000 496936.688000 -3.256000 3
155922.641000 496936.313000 -2.806000 3
155923.406000 496936.625000 -3.166000 3
155922.859000 496935.719000 -2.177000 3
155922.031000 496935.500000 -1.775000 3
155922.188000 496934.594000 -1.412000 3
155923.016000 496935.125000 -1.239000 3
155923.453000 496935.094000 -1.331000 3
155922.641000 496934.844000 -1.466000 3
155922.266000 496934.875000 -1.655000 3
155921.922000 496935.063000 -1.893000 3
155922.719000 496935.188000 -1.620000 3
155923.078000 496935.344000 -1.594000 3
155922.750000 496935.250000 -2.325000 3
155922.469000 496935.656000 -2.460000 3
155923.266000 496936.094000 -2.570000 3
155923.078000 496936.500000 -3.001000 3
155922.547000 496935.969000 -2.631000 3
155923.000000 496936.250000 -2.746000 3
155922.219000 496936.219000 -2.673000 3
155923.141000 496936.781000 -3.173000 3
155922.734000 496936.656000 -2.935000 3
155921.781000 496937.094000 -3.006000 3
155921.484000 496937.281000 -2.472000 3
155922.359000 496936.813000 -3.068000 3
155922.078000 496937.094000 -3.170000 3
155922.891000 496937.281000 -3.257000 3
155921.531000 496937.469000 -2.943000 3
155921.688000 496938.094000 -3.280000 3
155921.609000 496937.750000 -3.186000 3
155921.266000 496937.813000 -2.630000 3
155920.750000 496937.281000 -3.350000 3
155920.563000 496937.719000 -3.078000 3
155920.438000 496937.250000 -2.361000 3
155920.672000 496937.000000 -2.228000 3
155919.672000 496937.156000 -1.477000 3
155919.297000 496937.281000 -2.515000 3
155920.266000 496936.594000 -2.136000 3
155920.188000 496936.250000 -2.038000 3
155919.813000 496936.375000 -2.420000 3
155918.625000 496935.813000 -1.458000 3
155918.547000 496935.531000 -1.191000 3
155918.297000 496936.063000 -1.661000 3
155918.938000 496935.844000 -1.410000 3
155919.250000 496937.063000 -1.340000 3
155918.875000 496936.781000 -1.895000 3
155918.734000 496936.219000 -1.428000 3
155919.141000 496936.625000 -1.381000 3
155918.984000 496937.188000 -1.737000 3
155918.469000 496936.781000 -0.976000 3
155918.594000 496937.219000 -1.709000 3
155918.547000 496937.031000 -1.279000 3
155918.297000 496937.563000 -1.391000 3
155918.172000 496937.063000 -0.828000 3
155917.547000 496937.594000 -1.587000 3
155917.484000 496937.375000 -1.269000 3
155915.969000 496937.531000 -0.334000 3
155915.750000 496938.250000 0.217000 3
155916.531000 496938.406000 -0.127000 3
155916.000000 496939.188000 -0.190000 3
155916.703000 496939.031000 0.356000 3
155916.297000 496938.781000 -0.197000 3
155915.906000 496938.844000 -0.178000 3
155915.578000 496937.594000 0.472000 3
155915.781000 496936.813000 0.631000 3
155916.078000 496936.656000 1.175000 3
155916.547000 496936.781000 1.940000 3
155915.938000 496937.375000 1.136000 3
155916.391000 496937.844000 1.253000 3
155915.406000 496936.938000 0.652000 3
155915.938000 496937.406000 0.262000 3
155916.094000 496937.969000 -0.170000 3
155916.844000 496937.938000 -0.603000 3
155916.406000 496937.906000 -0.383000 3
155917.078000 496937.469000 -0.905000 3
155916.203000 496937.125000 -0.366000 3
155916.766000 496937.625000 -0.431000 3
155916.281000 496937.438000 -0.537000 3
155917.031000 496937.250000 -0.537000 3
155916.547000 496936.781000 1.046000 3
155916.625000 496937.094000 0.917000 3
155916.625000 496937.063000 0.084000 3
155916.984000 496937.063000 -0.034000 3
155917.359000 496936.844000 1.032000 3
155917.297000 496936.625000 1.404000 3
155917.641000 496936.563000 0.888000 3
155918.688000 496934.906000 0.882000 3
155917.375000 496935.500000 1.049000 3
155917.406000 496935.625000 0.461000 3
155918.172000 496935.594000 1.552000 3
155919.484000 496936.438000 0.327000 3
155918.359000 496936.313000 -0.273000 3
155918.297000 496936.094000 0.191000 3
155918.969000 496935.969000 -0.161000 3
155919.469000 496935.031000 -0.257000 3
155920.188000 496935.094000 -0.382000 3
155919.781000 496934.688000 0.403000 3
155919.922000 496935.219000 -0.153000 3
155919.828000 496934.875000 -0.028000 3
155919.938000 496934.156000 -0.002000 3
155920.016000 496934.438000 -0.125000 3
155920.531000 496933.625000 -1.161000 3
155921.531000 496933.594000 -0.025000 3
155922.063000 496934.094000 -0.841000 3
155920.969000 496933.969000 -0.438000 3
155921.875000 496934.875000 -1.416000 3
155921.797000 496934.625000 -1.217000 3
155921.109000 496934.500000 -1.028000 3
155920.859000 496934.844000 -1.017000 3
155921.438000 496934.656000 -0.953000 3
155922.250000 496936.375000 -0.711000 3
155922.484000 496935.719000 -0.579000 3
155922.141000 496935.938000 0.005000 3
155921.781000 496935.938000 -0.701000 3
155920.734000 496934.406000 -0.252000 3
155921.375000 496935.500000 -0.526000 3
155920.484000 496934.813000 0.311000 3
155921.828000 496934.719000 -0.137000 3
155922.219000 496934.688000 1.212000 3
155922.438000 496934.031000 1.039000 3
155922.969000 496933.219000 -0.269000 3
155922.813000 496934.375000 0.404000 3
155923.016000 496933.375000 0.880000 3
155923.953000 496934.031000 0.490000 3
155923.750000 496934.844000 0.095000 3
155924.188000 496934.938000 -0.086000 3
155924.422000 496934.688000 0.205000 3
155924.109000 496934.625000 0.152000 3
155924.328000 496934.344000 0.195000 3
155923.094000 496933.688000 0.735000 3
155923.250000 496934.281000 0.333000 3
155923.594000 496934.250000 0.528000 3
155923.156000 496933.969000 0.480000 3
155923.547000 496932.469000 -0.379000 3
155924.156000 496933.656000 0.451000 3
155923.313000 496933.156000 -0.123000 3
155925.047000 496932.563000 -0.520000 3
155924.875000 496933.656000 -1.521000 3
155925.078000 496932.719000 -0.965000 3
155925.266000 496933.469000 -1.117000 3
155925.344000 496932.719000 -1.072000 3
155925.156000 496933.000000 -1.201000 3
155925.344000 496933.719000 -1.327000 3
155925.359000 496933.781000 -1.990000 3
155925.547000 496933.469000 -1.246000 3
155926.141000 496934.031000 -1.522000 3
155925.578000 496933.625000 -1.747000 3
155925.891000 496933.063000 -1.906000 3
155925.828000 496932.813000 -1.614000 3
155926.188000 496932.750000 -1.566000 3
155926.297000 496933.156000 -1.534000 3
155926.469000 496933.844000 -1.725000 3
155926.359000 496933.438000 -1.813000 3
155926.781000 496933.344000 -1.561000 3
155927.063000 496933.281000 -1.548000 3
155926.844000 496933.594000 -1.885000 3
155919.516000 496949.813000 -1.295000 4
155919.406000 496950.688000 -0.969000 4
155918.531000 496950.344000 -0.793000 4
155917.781000 496950.250000 -0.926000 4
155917.891000 496950.656000 -1.744000 4
155917.719000 496951.438000 -1.238000 4
155918.156000 496951.688000 -2.056000 4
155918.922000 496951.875000 -1.654000 4
155919.406000 496952.313000 -0.957000 4
155920.000000 496951.688000 -1.337000 4
155920.672000 496951.250000 -1.807000 4
155921.484000 496951.344000 -2.116000 4
155921.359000 496952.219000 -2.242000 4
155920.938000 496952.250000 -1.355000 4
155920.781000 496953.031000 -1.260000 4
155921.641000 496953.281000 -1.624000 4
155921.672000 496953.438000 -2.099000 4
155921.250000 496953.500000 -1.876000 4
155921.578000 496953.063000 -1.242000 4
155920.063000 496953.219000 -1.402000 4
155919.656000 496953.281000 -0.570000 4
155918.844000 496953.156000 -1.009000 4
155918.438000 496952.750000 -0.471000 4
155918.656000 496952.406000 -0.185000 4
155918.672000 496953.625000 -1.039000 4
155918.156000 496954.438000 -1.207000 4
155917.281000 496954.125000 -0.877000 4
155917.266000 496954.094000 -1.863000 4
155916.766000 496953.500000 -2.466000 4
155915.984000 496953.719000 -2.996000 4
155915.750000 496952.844000 -3.360000 4
155916.516000 496952.563000 -2.853000 4
155917.141000 496952.219000 -2.461000 4
155917.625000 496952.375000 -3.203000 4
155918.219000 496951.906000 -3.177000 4
155917.688000 496951.375000 -3.206000 4
155917.313000 496951.188000 -2.445000 4
155917.328000 496951.281000 -3.108000 4
155917.109000 496950.438000 -3.305000 4
155917.609000 496949.594000 -3.286000 4
155916.500000 496951.125000 -3.323000 4
155915.875000 496951.625000 -3.274000 4
155915.234000 496950.875000 -3.374000 4
155915.016000 496951.500000 -3.140000 4
155915.109000 496951.906000 -3.100000 4
155915.750000 496951.156000 -3.375000 4
155917.359000 496953.063000 -3.165000 4
155917.750000 496952.875000 -3.074000 4
155917.891000 496952.125000 -3.156000 4
155917.516000 496952.000000 -3.171000 4
155917.453000 496951.781000 -2.836000 4
155917.047000 496951.875000 -2.358000 4
155916.781000 496952.250000 -2.480000 4
155916.438000 496952.281000 -2.634000 4
155915.563000 496952.125000 -3.087000 4
155916.078000 496952.438000 -3.073000 4
155915.281000 496952.563000 -3.423000 4
155916.172000 496952.750000 -3.254000 4
155915.656000 496952.500000 -3.166000 4
155915.797000 496954.500000 -3.317000 4
155916.297000 496954.938000 -2.787000 4
155916.281000 496954.906000 -2.045000 4
155916.016000 496955.344000 -1.375000 4
155916.313000 496955.000000 -1.005000 4
155917.188000 496955.125000 -1.411000 4
155917.344000 496955.719000 -1.834000 4
155917.844000 496956.281000 -1.226000 4
155917.734000 496955.875000 -0.387000 4
155918.422000 496955.406000 0.164000 4
155919.359000 496955.125000 0.003000 4
155919.203000 496955.688000 -0.595000 4
155919.719000 496954.906000 -0.908000 4
155919.906000 496954.219000 -0.916000 4
155919.906000 496954.188000 -0.122000 4
155920.109000 496955.000000 -0.975000 4
155920.031000 496954.688000 -0.834000 4
155919.047000 496956.563000 -0.836000 4
155919.406000 496955.313000 -1.339000 4
155919.031000 496955.063000 -1.150000 4
155919.328000 496955.031000 -1.090000 4
155919.406000 496956.469000 -0.534000 4
155919.578000 496957.156000 0.159000 4
155919.688000 496957.563000 -0.733000 4
155920.188000 496958.281000 -0.601000 4
155919.531000 496958.375000 -0.060000 4
155919.469000 496958.156000 0.269000 4
155919.578000 496958.594000 -0.537000 4
155918.938000 496959.094000 -0.747000 4
155918.750000 496959.781000 -1.172000 4
155918.016000 496959.813000 -0.943000 4
155917.313000 496960.313000 -1.209000 4
155917.297000 496960.281000 -2.204000 4
155916.672000 496960.844000 -2.288000 4
155916.281000 496960.906000 -1.782000 4
155915.469000 496960.500000 -1.370000 4
155915.906000 496960.656000 -0.503000 4
155915.781000 496960.188000 0.183000 4
155915.203000 496959.469000 -0.169000 4
155915.359000 496958.594000 -0.041000 4
155916.203000 496959.063000 -0.199000 4
155916.203000 496959.063000 0.673000 4
155916.656000 496959.125000 -0.690000 4
155916.766000 496958.219000 -0.816000 4
155916.906000 496957.281000 -0.828000 4
155916.391000 496956.781000 -1.510000 4
155917.016000 496957.688000 -1.630000 4
155916.828000 496958.469000 -2.017000 4
155917.281000 496958.719000 -2.865000 4
155917.859000 496959.250000 -2.265000 4
155918.063000 496958.469000 -3.360000 4
155918.188000 496957.656000 -3.443000 4
155917.750000 496957.313000 -3.325000 4
155917.172000 496956.594000 -3.184000 4
155916.609000 496956.156000 -3.414000 4
155916.063000 496956.844000 -3.373000 4
155915.406000 496957.563000 -3.204000 4
155915.938000 496958.031000 -2.599000 4
