153917.000000 496311.656000 -0.568000 4
153917.266000 496311.938000 -1.108000 4
153918.000000 496312.156000 -0.543000 4
153917.672000 496312.125000 -0.816000 4
153917.172000 496312.281000 -1.021000 4
153918.422000 496313.500000 -1.163000 4
153917.922000 496312.469000 -0.770000 4
153917.766000 496313.094000 -0.654000 4
153919.125000 496313.875000 -0.309000 4
153918.484000 496313.250000 -0.368000 4
153918.891000 496313.469000 -0.213000 4
153918.813000 496313.781000 -0.365000 4
153918.125000 496314.625000 0.466000 4
153918.047000 496313.563000 -0.087000 4
153917.875000 496314.250000 0.341000 4
153917.063000 496314.531000 0.392000 4
153917.484000 496314.188000 0.675000 4
153917.953000 496313.906000 0.027000 4
153917.141000 496314.188000 0.382000 4
153917.563000 496313.875000 0.282000 4
153915.734000 496313.563000 -0.571000 4
153915.641000 496313.938000 -0.258000 4
153916.063000 496313.719000 -0.268000 4
153916.563000 496314.688000 0.401000 4
153916.734000 496314.031000 0.088000 4
153916.406000 496313.938000 -0.060000 4
153915.984000 496314.031000 -0.205000 4
153916.656000 496314.344000 0.031000 4
153916.328000 496314.281000 0.162000 4
153915.578000 496314.219000 -0.488000 4
153915.234000 496315.531000 -0.488000 4
153915.656000 496315.313000 -0.049000 4
153915.734000 496315.031000 -0.025000 4
153915.828000 496314.688000 -0.252000 4
153914.563000 496313.625000 0.093000 4
153914.016000 496314.125000 0.232000 4
153915.469000 496314.594000 -0.115000 4
153914.906000 496313.781000 -0.110000 4
153914.484000 496313.938000 0.185000 4
153915.063000 496314.500000 0.020000 4
153915.156000 496314.156000 -0.419000 4
153914.578000 496315.031000 -0.497000 4
153912.828000 496314.063000 -0.944000 4
153912.672000 496314.656000 -1.509000 4
153913.938000 496314.406000 -0.243000 4
153913.563000 496314.250000 -0.263000 4
153912.578000 496315.031000 -0.676000 4
153913.141000 496314.344000 -0.507000 4
153913.063000 496314.656000 -0.851000 4
153912.984000 496315.000000 -0.665000 4
153912.891000 496315.313000 -0.541000 4
153912.813000 496315.656000 -0.444000 4
153913.063000 496316.156000 -0.595000 4
153913.313000 496315.156000 -0.867000 4
153913.141000 496315.844000 -0.599000 4
153913.234000 496315.500000 -0.748000 4
153913.547000 496315.969000 -0.529000 4
153913.734000 496316.813000 -0.067000 4
153914.250000 496316.313000 -0.401000 4
153914.156000 496316.688000 -0.028000 4
153913.828000 496316.469000 -0.185000 4
153914.906000 496315.125000 -0.151000 4
153913.781000 496315.000000 -0.385000 4
153914.063000 496315.563000 0.279000 4
153914.547000 496316.500000 0.150000 4
153913.969000 496315.906000 0.374000 4
153914.484000 496315.438000 0.456000 4
153914.391000 496315.781000 0.667000 4
153914.797000 496315.563000 0.774000 4
153915.438000 496316.188000 1.703000 4
153915.719000 496316.594000 1.404000 4
153915.641000 496316.938000 1.389000 4
153915.109000 496316.000000 0.844000 4
153915.359000 496316.438000 1.364000 4
153915.281000 496316.781000 1.523000 4
153915.031000 496316.313000 1.072000 4
153915.547000 496317.250000 1.300000 4
153915.391000 496317.875000 0.735000 4
153915.188000 496317.125000 1.495000 4
153914.453000 496316.906000 0.978000 4
153915.063000 496317.656000 0.458000 4
153914.859000 496316.969000 0.979000 4
153914.781000 496317.250000 0.820000 4
153913.109000 496317.656000 0.223000 4
153913.188000 496317.313000 0.330000 4
153914.359000 496317.250000 1.220000 4
153913.406000 496318.125000 0.431000 4
153913.656000 496317.156000 0.473000 4
153913.484000 496317.813000 0.444000 4
153913.563000 496317.469000 0.545000 4
153913.969000 496317.406000 0.660000 4
153914.906000 496318.219000 0.001000 4
153913.734000 496318.344000 0.578000 4
153914.203000 496317.844000 0.824000 4
153914.609000 496317.938000 0.888000 4
153914.125000 496318.188000 0.843000 4
153914.047000 496318.438000 0.397000 4
153913.969000 496318.750000 0.414000 4
153914.375000 496318.844000 0.417000 4
153914.484000 496319.875000 -0.201000 4
153913.578000 496318.906000 -0.147000 4
153913.172000 496319.000000 -0.587000 4
153913.016000 496319.656000 -0.627000 4
153913.094000 496319.313000 -0.551000 4
153914.234000 496319.406000 -0.562000 4
153913.828000 496319.313000 -0.387000 4
153913.344000 496319.875000 -0.036000 4
153912.828000 496320.344000 -0.101000 4
153912.922000 496320.000000 -0.411000 4
153913.672000 496319.906000 -0.955000 4
153913.250000 496320.188000 -0.066000 4
153914.406000 496320.125000 -0.707000 4
153913.578000 496320.281000 -0.076000 4
153913.984000 496320.344000 -0.688000 4
153914.766000 496320.313000 -0.373000 4
153913.906000 496320.656000 -0.795000 4
153914.344000 496320.438000 -0.758000 4
153914.672000 496320.656000 -0.230000 4
153914.594000 496321.000000 -0.227000 4
153914.141000 496321.188000 0.088000 4
153914.500000 496321.344000 -0.090000 4
153914.359000 496321.906000 -0.896000 4
153915.188000 496323.063000 -1.301000 4
153915.141000 496323.281000 -2.114000 4
153915.313000 496322.563000 -2.711000 4
153914.641000 496322.094000 -2.767000 4
153914.297000 496322.094000 -2.289000 4
153914.234000 496322.406000 -2.504000 4
153914.984000 496322.594000 -2.212000 4
153914.938000 496322.750000 -0.595000 4
153914.672000 496322.000000 -0.440000 4
153915.766000 496322.438000 -1.245000 4
153915.016000 496322.438000 -0.740000 4
153914.766000 496321.625000 -0.594000 4
153915.750000 496322.500000 -0.683000 4
153915.359000 496322.406000 -0.930000 4
153915.094000 496322.156000 -0.610000 4
153915.828000 496322.188000 -0.806000 4
153915.922000 496321.813000 -0.897000 4
153916.422000 496321.250000 -1.332000 4
153915.703000 496321.031000 -1.855000 4
153915.453000 496320.719000 -1.718000 4
153915.953000 496320.125000 -1.384000 4
153915.797000 496320.688000 -2.014000 4
153915.375000 496321.063000 -1.712000 4
153915.438000 496322.094000 -1.037000 4
153914.844000 496321.344000 -0.252000 4
153916.078000 496321.188000 -1.324000 4
153915.625000 496321.375000 -1.265000 4
153914.922000 496321.031000 -0.322000 4
153916.203000 496320.688000 0.216000 4
153916.719000 496320.094000 -0.088000 4
153916.797000 496319.781000 0.098000 4
153915.266000 496321.500000 -0.329000 4
153916.000000 496321.531000 -0.855000 4
153915.000000 496320.688000 -0.516000 4
153915.672000 496321.156000 -0.611000 4
153914.844000 496320.031000 -0.218000 4
153915.578000 496320.250000 0.297000 4
153915.906000 496320.281000 0.238000 4
153916.391000 496320.000000 -0.573000 4
153915.859000 496320.500000 -0.626000 4
153915.172000 496320.094000 -0.403000 4
153916.000000 496319.906000 -0.399000 4
153914.813000 496318.625000 0.680000 4
153914.563000 496319.531000 -0.053000 4
153915.563000 496318.531000 0.836000 4
153916.094000 496319.563000 -0.337000 4
153915.234000 496318.500000 0.710000 4
153914.719000 496318.938000 0.302000 4
153915.250000 496319.750000 -0.254000 4
153914.922000 496319.688000 0.132000 4
153915.469000 496318.875000 0.772000 4
153915.906000 496319.000000 0.541000 4
153915.078000 496319.125000 0.343000 4
153915.328000 496319.438000 -0.016000 4
153915.766000 496319.563000 -0.255000 4
153915.016000 496319.344000 -0.296000 4
153915.859000 496319.188000 -1.019000 4
153916.375000 496318.469000 -1.837000 4
153916.188000 496319.188000 -1.006000 4
153916.656000 496318.938000 -1.527000 4
153916.578000 496319.250000 -1.463000 4
153916.484000 496319.625000 -0.955000 4
153917.047000 496318.813000 0.052000 4
153918.578000 496318.875000 -0.664000 4
153919.031000 496318.938000 -0.696000 4
153918.672000 496318.531000 -0.802000 4
153917.969000 496318.344000 -0.153000 4
153917.578000 496318.594000 -0.516000 4
153917.406000 496319.188000 -0.485000 4
153917.234000 496319.875000 -0.422000 4
153918.844000 496319.656000 -0.076000 4
153918.672000 496320.313000 0.401000 4
153917.328000 496319.531000 -0.348000 4
153918.766000 496320.000000 0.283000 4
153917.547000 496319.969000 -0.521000 4
153917.719000 496319.313000 -0.383000 4
153917.641000 496319.625000 -0.408000 4
153918.234000 496320.250000 0.561000 4
153917.984000 496321.188000 0.107000 4
153917.844000 496320.438000 -0.410000 4
153916.969000 496320.938000 0.530000 4
153917.141000 496320.219000 0.038000 4
153917.734000 496320.813000 0.085000 4
153917.391000 496320.563000 -0.340000 4
153917.844000 496321.719000 -0.749000 4
153917.656000 496321.125000 -0.235000 4
153917.609000 496321.344000 -1.033000 4
153917.422000 496322.031000 -0.799000 4
153917.500000 496321.719000 -0.623000 4
153917.219000 496321.219000 -0.381000 4
153916.250000 496321.938000 -0.926000 4
153917.063000 496321.844000 -0.813000 4
153916.156000 496322.281000 -0.634000 4
153916.563000 496322.469000 -0.336000 4
153916.391000 496323.156000 -0.026000 4
153916.797000 496322.906000 0.120000 4
153915.953000 496323.094000 1.304000 4
153916.844000 496322.688000 1.284000 4
153917.609000 496322.625000 1.869000 4
153918.484000 496322.563000 1.881000 4
153919.031000 496322.094000 1.850000 4
153919.125000 496321.750000 1.963000 4
153917.781000 496321.938000 1.707000 4
153917.703000 496322.313000 1.749000 4
153917.359000 496322.281000 1.724000 4
153917.281000 496322.563000 1.695000 4
153916.922000 496322.406000 1.733000 4
153917.219000 496322.844000 1.247000 4
153916.531000 496322.625000 1.297000 4
153916.438000 496322.969000 1.491000 4
153916.031000 496322.750000 1.156000 4
153915.531000 496323.281000 0.902000 4
153914.484000 496322.750000 0.643000 4
153913.313000 496323.000000 0.505000 4
153913.719000 496322.813000 0.480000 4
153913.891000 496322.188000 0.439000 4
153912.859000 496321.719000 -1.068000 4
153913.563000 496322.031000 0.299000 4
153914.078000 496321.438000 -0.405000 4
153913.984000 496321.813000 -0.044000 4
153913.813000 496321.000000 -0.622000 4
153913.078000 496320.844000 0.103000 4
153913.406000 496320.938000 -0.080000 4
153913.641000 496321.688000 0.185000 4
153913.719000 496321.375000 0.021000 4
153913.328000 496321.250000 -0.052000 4
153912.656000 496321.000000 0.077000 4
153912.984000 496321.188000 0.214000 4
153911.531000 496322.094000 0.235000 4
153911.625000 496321.688000 -0.234000 4
153912.516000 496321.531000 -0.724000 4
153913.156000 496321.906000 0.244000 4
153913.063000 496322.250000 0.291000 4
153912.188000 496321.219000 0.111000 4
153912.109000 496321.500000 -0.144000 4
153912.828000 496321.813000 0.215000 4
153911.859000 496322.469000 0.034000 4
153911.938000 496322.125000 -0.171000 4
153913.406000 496322.594000 -0.155000 4
153911.781000 496322.781000 -0.250000 4
153912.984000 496322.563000 0.221000 4
153912.766000 496322.094000 -0.612000 4
153912.672000 496322.438000 -0.298000 4
153911.609000 496323.438000 -0.068000 4
153912.500000 496323.125000 0.137000 4
153912.813000 496323.219000 0.033000 4
153912.156000 496322.938000 -0.146000 4
153911.547000 496323.688000 -0.547000 4
153912.078000 496323.250000 -0.414000 4
153911.922000 496323.844000 -0.575000 4
153912.000000 496323.531000 -0.367000 4
153912.672000 496323.750000 -1.079000 4
153912.266000 496324.031000 -0.521000 4
153913.266000 496324.594000 -0.711000 4
153912.734000 496323.531000 -0.037000 4
153913.156000 496323.563000 -0.161000 4
153913.219000 496323.344000 0.501000 4
153913.672000 496324.563000 0.185000 4
153913.328000 496324.344000 -0.059000 4
153913.063000 496323.938000 0.374000 4
153913.641000 496323.125000 0.553000 4
153913.750000 496324.250000 0.075000 4
153913.500000 496323.688000 0.131000 4
153914.078000 496322.969000 0.384000 4
153914.391000 496323.063000 0.227000 4
153913.828000 496323.906000 0.261000 4
153914.313000 496323.375000 0.256000 4
153915.078000 496323.500000 0.414000 4
153914.750000 496323.500000 0.507000 4
153913.984000 496324.625000 0.174000 4
153915.000000 496323.813000 0.074000 4
153914.578000 496324.156000 0.215000 4
153914.500000 496324.469000 0.181000 4
153915.281000 496324.250000 0.632000 4
153915.813000 496323.625000 0.618000 4
153915.719000 496324.000000 0.786000 4
153916.297000 496323.531000 1.023000 4
153916.109000 496324.219000 1.134000 4
153916.438000 496324.313000 1.224000 4
153916.203000 496323.875000 1.252000 4
153917.125000 496323.188000 1.388000 4
153917.047000 496323.500000 1.158000 4
153916.859000 496324.219000 1.567000 4
153916.953000 496323.844000 1.505000 4
153917.203000 496324.219000 1.515000 4
153917.734000 496323.938000 1.415000 4
153917.922000 496324.750000 1.609000 4
153918.156000 496325.500000 1.007000 4
153918.078000 496325.813000 0.848000 4
153918.234000 496325.188000 0.768000 4
153918.531000 496325.594000 0.992000 4
153919.141000 496325.063000 1.419000 4
153918.609000 496325.313000 0.987000 4
153918.313000 496324.875000 1.264000 4
153918.766000 496324.688000 1.182000 4
153918.844000 496324.375000 1.124000 4
153920.203000 496325.469000 0.093000 4
153921.141000 496325.219000 -0.107000 4
153921.391000 496325.875000 -0.393000 4
153920.609000 496325.656000 0.032000 4
153919.828000 496325.469000 0.379000 4
153919.906000 496325.188000 0.830000 4
153919.641000 496324.688000 0.329000 4
153921.328000 496324.469000 -0.851000 4
153919.828000 496323.969000 -0.630000 4
153920.406000 496324.656000 -1.547000 4
153920.266000 496323.781000 -0.439000 4
153920.219000 496324.000000 -1.625000 4
153920.391000 496323.313000 -2.063000 4
153919.563000 496323.438000 -2.175000 4
153920.031000 496323.188000 -2.484000 4
153921.406000 496324.219000 -0.837000 4
153921.875000 496324.000000 0.016000 4
153921.047000 496324.000000 -0.779000 4
153921.578000 496323.563000 -0.799000 4
153921.281000 496323.063000 -0.499000 4
153921.641000 496323.281000 -0.510000 4
153922.219000 496322.625000 -0.590000 4
153922.125000 496323.031000 0.006000 4
153923.375000 496322.563000 0.406000 4
153923.016000 496322.531000 0.511000 4
153922.438000 496323.125000 0.127000 4
153922.844000 496323.188000 0.349000 4
153921.484000 496322.281000 1.183000 4
153921.859000 496322.469000 1.138000 4
153922.281000 496320.813000 1.066000 4
153921.578000 496321.906000 0.863000 4
153922.188000 496321.156000 1.171000 4
153921.813000 496320.969000 1.121000 4
153921.406000 496320.781000 1.480000 4
153920.609000 496320.938000 1.465000 4
153920.531000 496321.250000 1.197000 4
153919.500000 496321.844000 1.934000 4
153919.953000 496321.875000 1.844000 4
153920.359000 496321.906000 1.353000 4
153919.875000 496322.188000 1.846000 4
153921.391000 496322.625000 1.482000 4
153920.984000 496322.406000 1.648000 4
153921.688000 496323.094000 1.039000 4
153921.328000 496322.875000 1.092000 4
153921.234000 496323.219000 1.259000 4
153921.938000 496323.750000 0.866000 4
153921.531000 496323.688000 0.782000 4
153921.000000 496324.156000 1.157000 4
153920.859000 496324.688000 0.374000 4
153920.922000 496324.469000 1.077000 4
153920.688000 496325.344000 0.332000 4
153921.281000 496324.656000 1.133000 4
153921.203000 496325.000000 1.079000 4
153921.047000 496325.563000 0.122000 4
153921.516000 496325.344000 0.860000 4
153921.438000 496325.656000 0.494000 4
153922.094000 496326.125000 0.635000 4
153921.844000 496325.406000 -0.009000 4
153922.203000 496325.750000 0.325000 4
153921.672000 496324.750000 1.189000 4
153921.922000 496325.156000 0.943000 4
153922.000000 496324.813000 1.140000 4
153922.094000 496324.469000 0.795000 4
153922.344000 496325.125000 0.575000 4
153922.500000 496324.563000 0.979000 4
153922.266000 496323.781000 0.436000 4
153922.766000 496323.531000 0.375000 4
153922.688000 496323.813000 0.477000 4
153922.609000 496324.156000 0.264000 4
153923.047000 496323.813000 0.159000 4
153923.109000 496323.563000 0.602000 4
153923.203000 496323.250000 0.532000 4
153923.750000 496322.563000 1.184000 4
153923.438000 496323.813000 1.247000 4
153923.516000 496323.469000 0.847000 4
153923.594000 496323.156000 0.856000 4
153924.000000 496323.031000 1.030000 4
153923.844000 496323.656000 0.965000 4
153924.188000 496324.094000 1.315000 4
153924.422000 496323.188000 1.720000 4
153924.266000 496323.813000 1.554000 4
153924.344000 496323.500000 1.553000 4
153924.578000 496323.875000 1.649000 4
153924.500000 496324.219000 1.443000 4
153924.750000 496324.656000 1.115000 4
153925.094000 496323.344000 0.827000 4
153924.922000 496324.000000 1.276000 4
153925.078000 496324.688000 1.155000 4
153925.547000 496324.656000 0.446000 4
153926.250000 496325.000000 0.775000 4
153925.844000 496324.969000 0.755000 4
153925.453000 496325.000000 0.580000 4
153925.359000 496325.344000 0.834000 4
153925.766000 496325.281000 0.391000 4
153926.094000 496325.625000 0.574000 4
153925.938000 496327.625000 0.243000 4
153925.281000 496327.156000 0.062000 4
153926.188000 496326.656000 0.185000 4
153926.109000 496327.000000 0.230000 4
153925.859000 496326.563000 0.327000 4
153925.078000 496326.469000 -1.047000 4
153925.391000 496326.719000 -1.032000 4
153926.281000 496326.313000 -0.396000 4
153925.469000 496326.438000 -0.918000 4
153924.859000 496325.531000 -0.457000 4
153924.953000 496325.188000 -0.649000 4
153925.406000 496325.219000 -0.700000 4
153925.328000 496325.500000 -0.922000 4
153925.875000 496324.844000 -0.801000 4
153926.375000 496325.938000 -0.967000 4
153926.125000 496325.531000 -0.291000 4
153926.891000 496325.656000 -0.345000 4
153928.188000 496325.156000 -1.513000 4
153927.969000 496324.500000 -1.136000 4
153927.281000 496325.625000 -1.320000 4
153927.891000 496324.813000 -1.334000 4
153926.594000 496325.094000 0.518000 4
153927.313000 496325.469000 0.207000 4
153927.859000 496324.938000 -0.067000 4
153926.609000 496325.031000 -0.465000 4
153926.953000 496325.375000 -0.106000 4
153926.703000 496324.688000 -0.528000 4
153927.047000 496325.031000 -0.358000 4
153926.688000 496323.344000 0.116000 4
153927.172000 496322.844000 0.705000 4
153928.063000 496322.563000 0.411000 4
153928.875000 496322.469000 0.412000 4
153928.234000 496321.906000 0.331000 4
153927.594000 496321.250000 0.691000 4
153927.000000 496320.500000 0.908000 4
153926.609000 496320.531000 0.713000 4
153926.250000 496320.156000 0.329000 4
153925.609000 496319.875000 -0.083000 4
153926.125000 496319.344000 -0.679000 4
153926.625000 496318.719000 -1.115000 4
153926.063000 496318.156000 -1.617000 4
153925.672000 496318.375000 -1.030000 4
153926.391000 496318.313000 -1.477000 4
153925.891000 496318.813000 -1.317000 4
153925.797000 496319.156000 -0.841000 4
153925.953000 496320.000000 -0.739000 4
153926.406000 496319.500000 0.380000 4
153926.344000 496319.781000 -0.053000 4
153926.016000 496319.750000 0.086000 4
153926.672000 496320.250000 0.797000 4
153926.922000 496320.781000 0.422000 4
153927.422000 496320.500000 0.862000 4
153927.344000 496320.813000 0.761000 4
153927.953000 496321.531000 0.419000 4
153928.578000 496322.156000 0.506000 4
153928.500000 496322.438000 0.377000 4
153928.156000 496322.219000 0.185000 4
153927.766000 496322.219000 0.648000 4
153927.969000 496322.906000 1.020000 4
153927.688000 496322.563000 0.708000 4
153927.609000 496322.875000 0.735000 4
153926.109000 496323.938000 -0.120000 4
153926.344000 496324.688000 0.712000 4
153926.672000 496324.781000 0.823000 4
153926.750000 496324.469000 0.728000 4
153926.516000 496324.031000 0.662000 4
153927.016000 496323.438000 0.448000 4
153927.531000 496323.188000 0.449000 4
153926.938000 496323.781000 0.652000 4
153927.875000 496323.250000 0.878000 4
153927.266000 496324.156000 0.550000 4
153927.438000 496323.531000 0.552000 4
153928.953000 496324.156000 0.067000 4
153927.359000 496323.813000 0.247000 4
153927.578000 496324.438000 -0.320000 4
153927.828000 496323.500000 0.236000 4
153928.391000 496324.344000 -0.317000 4
153928.031000 496324.281000 -0.405000 4
153927.781000 496323.656000 -1.383000 4
153929.063000 496323.750000 -0.742000 4
153927.906000 496323.125000 -0.369000 4
153928.578000 496323.656000 -0.677000 4
153928.219000 496323.594000 -0.722000 4
153928.359000 496323.000000 -0.583000 4
153928.734000 496323.031000 -0.384000 4
153929.391000 496322.500000 -0.391000 4
153929.922000 496321.875000 -1.012000 4
153929.734000 496321.125000 -1.101000 4
153929.578000 496321.750000 -1.199000 4
153929.656000 496321.438000 -1.101000 4
153928.391000 496321.281000 0.121000 4
153928.984000 496322.063000 -0.557000 4
153928.766000 496321.438000 -0.019000 4
153929.063000 496321.750000 -0.369000 4
153928.328000 496321.531000 -0.118000 4
153929.313000 496320.781000 -0.386000 4
153929.109000 496320.125000 -0.453000 4
153929.234000 496321.125000 -0.408000 4
153929.016000 496320.438000 -0.291000 4
153928.844000 496321.125000 -0.418000 4
153928.938000 496320.750000 -0.531000 4
153928.578000 496320.594000 -0.221000 4
153928.141000 496320.781000 -1.025000 4
153928.656000 496320.281000 -0.408000 4
153928.313000 496320.156000 -0.714000 4
153926.813000 496319.750000 -1.042000 4
153927.125000 496320.031000 -0.750000 4
153926.906000 496319.406000 -1.264000 4
153926.984000 496319.094000 -1.304000 4
153927.281000 496319.375000 -0.486000 4
153927.219000 496319.656000 -0.927000 4
153927.375000 496319.031000 -1.101000 4
153929.750000 496319.094000 -1.140000 4
153928.656000 496318.813000 -1.918000 4
153928.859000 496319.500000 -1.596000 4
153929.281000 496319.406000 -1.043000 4
153929.375000 496319.094000 -0.994000 4
153928.922000 496319.219000 -1.325000 4
153927.797000 496319.031000 -1.332000 4
153928.563000 496319.188000 -1.272000 4
153928.141000 496319.125000 -1.152000 4
153926.703000 496318.344000 -1.354000 4
153928.219000 496318.813000 -1.173000 4
153927.969000 496318.375000 -0.719000 4
153927.453000 496318.719000 -1.092000 4
153927.891000 496318.656000 -1.302000 4
153928.031000 496318.094000 -0.532000 4
153929.172000 496318.250000 -1.088000 4
153929.250000 496317.938000 -1.248000 4
153929.344000 496317.594000 -1.279000 4
153929.516000 496316.938000 -1.536000 4
153928.797000 496318.250000 -0.955000 4
153928.375000 496318.219000 -0.866000 4
153928.125000 496317.750000 -0.901000 4
153928.891000 496317.906000 -1.170000 4
153928.453000 496317.906000 -0.819000 4
153928.969000 496317.563000 -1.324000 4
153929.063000 496317.219000 -1.352000 4
153929.141000 496316.906000 -1.402000 4
153928.500000 496316.344000 -2.241000 4
153928.234000 496317.344000 -1.573000 4
153928.734000 496316.813000 -2.098000 4
153927.984000 496316.656000 -1.953000 4
153928.641000 496317.188000 -1.476000 4
153928.328000 496317.000000 -1.824000 4
153927.656000 496316.438000 -1.606000 4
153928.078000 496316.344000 -1.870000 4
153928.297000 496315.438000 -1.163000 4
153927.734000 496316.156000 -1.379000 4
153927.906000 496315.469000 -1.505000 4
153927.813000 496315.844000 -1.433000 4
153927.297000 496316.063000 -1.622000 4
153926.500000 496315.156000 -1.344000 4
153925.578000 496315.500000 -1.420000 4
153925.047000 496314.688000 -1.304000 4
153924.813000 496313.906000 -1.818000 4
153924.094000 496313.781000 -2.226000 4
153923.813000 496313.281000 -1.715000 4
153924.172000 496313.469000 -1.985000 4
153924.656000 496313.188000 -1.961000 4
153924.984000 496313.281000 -1.806000 4
153924.578000 496313.500000 -2.014000 4
153924.484000 496313.844000 -1.879000 4
153924.469000 496315.250000 -1.553000 4
153924.547000 496314.969000 -1.281000 4
153925.125000 496314.375000 -1.175000 4
153924.719000 496315.938000 -1.527000 4
153924.625000 496316.313000 -1.037000 4
153925.406000 496314.688000 -1.526000 4
153924.797000 496315.656000 -1.203000 4
153925.313000 496315.031000 -1.380000 4
153925.234000 496315.344000 -1.342000 4
153925.641000 496315.250000 -0.981000 4
153925.719000 496314.938000 -1.019000 4
153926.141000 496314.781000 -1.456000 4
153927.359000 496315.813000 -0.948000 4
153926.406000 496315.500000 -1.243000 4
153925.141000 496315.688000 -1.389000 4
153925.078000 496315.969000 -1.520000 4
153926.328000 496315.844000 -1.127000 4
153925.484000 496315.844000 -1.381000 4
153925.891000 496315.750000 -0.991000 4
153926.234000 496316.188000 -0.781000 4
153925.406000 496316.188000 -1.369000 4
153926.156000 496316.500000 -0.804000 4
153925.813000 496316.063000 -0.965000 4
153925.313000 496316.500000 -1.427000 4
153925.234000 496316.813000 -1.514000 4
153925.875000 496317.563000 0.457000 4
153924.328000 496317.469000 0.755000 4
153924.266000 496317.719000 -0.072000 4
153924.688000 496317.469000 0.642000 4
153925.344000 496317.813000 0.594000 4
153925.031000 496317.625000 0.110000 4
153924.797000 496318.500000 -0.342000 4
153924.859000 496318.250000 0.023000 4
153924.016000 496318.656000 -0.090000 4
153924.438000 496318.438000 0.468000 4
153924.844000 496318.344000 0.930000 4
153924.563000 496319.406000 1.738000 4
153924.391000 496320.063000 1.900000 4
153924.656000 496319.031000 1.562000 4
153925.156000 496318.531000 1.380000 4
153925.703000 496318.250000 0.766000 4
153926.172000 496319.156000 0.438000 4
153925.078000 496318.844000 1.207000 4
153926.234000 496318.906000 1.421000 4
153924.750000 496320.156000 1.374000 4
153924.906000 496319.563000 1.671000 4
153924.813000 496319.875000 1.789000 4
153926.063000 496319.594000 1.990000 4
153925.750000 496319.344000 1.111000 4
153925.672000 496319.656000 1.100000 4
153925.266000 496319.938000 1.472000 4
153925.484000 496320.375000 1.643000 4
153925.891000 496320.219000 1.636000 4
153926.219000 496320.281000 1.583000 4
153925.813000 496320.531000 1.547000 4
153926.141000 496320.594000 1.696000 4
153926.516000 496320.906000 0.901000 4
153925.516000 496321.688000 0.616000 4
153926.672000 496321.750000 0.495000 4
153927.406000 496321.938000 1.248000 4
153927.328000 496322.281000 1.271000 4
153927.234000 496322.625000 1.474000 4
153927.000000 496322.125000 1.013000 4
153926.250000 496321.875000 1.075000 4
153926.656000 496321.844000 1.314000 4
153926.172000 496323.688000 0.568000 4
153925.766000 496323.781000 1.229000 4
153926.906000 496322.500000 1.329000 4
153927.094000 496323.188000 0.903000 4
153926.484000 496322.500000 1.296000 4
153926.828000 496322.813000 1.343000 4
153926.734000 496323.125000 0.997000 4
153926.406000 496322.781000 1.049000 4
153926.234000 496323.469000 1.354000 4
153925.406000 496323.406000 1.119000 4
153925.844000 496323.500000 1.309000 4
153925.656000 496322.406000 1.039000 4
153924.813000 496322.969000 1.878000 4
153925.922000 496323.156000 1.222000 4
153926.000000 496322.844000 1.325000 4
153925.234000 496322.813000 2.332000 4
153924.594000 496322.563000 1.980000 4
153925.719000 496322.188000 1.801000 4
153925.328000 496322.438000 1.683000 4
153924.672000 496322.219000 2.041000 4
153925.734000 496320.844000 1.717000 4
153925.484000 496321.781000 1.842000 4
153925.656000 496321.125000 1.377000 4
153925.109000 496320.563000 1.347000 4
153925.344000 496320.938000 1.011000 4
153924.844000 496321.563000 1.778000 4
153925.250000 496321.313000 1.176000 4
153923.844000 496320.750000 1.248000 4
153924.250000 496320.625000 1.072000 4
153923.703000 496321.281000 -0.212000 4
153923.031000 496320.813000 -0.112000 4
153924.531000 496321.000000 0.050000 4
153924.375000 496320.156000 -0.773000 4
153924.219000 496320.750000 -0.707000 4
153923.453000 496320.875000 -0.129000 4
153924.625000 496320.625000 -0.169000 4
153923.781000 496320.969000 0.117000 4
153924.047000 496319.969000 -0.585000 4
153923.875000 496320.594000 -0.327000 4
153923.125000 496319.125000 -0.109000 4
153923.125000 496320.469000 -0.286000 4
153922.625000 496319.469000 0.210000 4
153923.531000 496320.563000 0.006000 4
153923.688000 496319.969000 -0.221000 4
153923.609000 496320.281000 0.008000 4
153923.359000 496319.531000 -0.012000 4
153924.234000 496319.188000 1.679000 4
153922.938000 496319.875000 0.827000 4
153924.328000 496320.313000 1.059000 4
153923.234000 496320.031000 1.565000 4
153924.172000 496319.469000 1.328000 4
153924.000000 496320.125000 1.313000 4
153923.641000 496320.094000 1.344000 4
153923.891000 496319.156000 1.277000 4
153923.016000 496319.594000 1.338000 4
153923.500000 496319.031000 0.840000 4
153924.078000 496318.438000 0.734000 4
153923.266000 496318.594000 1.345000 4
153923.344000 496318.281000 1.118000 4
153924.141000 496318.156000 1.271000 4
153923.813000 496317.781000 1.177000 4
153923.438000 496317.938000 1.176000 4
153923.516000 496317.625000 1.014000 4
153923.000000 496316.438000 1.115000 4
153922.563000 496316.281000 1.385000 4
153922.906000 496316.781000 1.257000 4
153922.484000 496316.625000 1.545000 4
153923.109000 496317.563000 1.121000 4
153921.531000 496317.375000 0.671000 4
153921.906000 496317.469000 0.356000 4
153922.938000 496318.281000 1.297000 4
153923.016000 496317.938000 1.291000 4
153922.328000 496317.219000 1.213000 4
153922.484000 496318.406000 1.205000 4
153922.656000 496317.750000 1.158000 4
153922.563000 496318.094000 1.168000 4
153922.266000 496317.500000 0.885000 4
153921.000000 496317.844000 0.235000 4
153921.828000 496319.156000 0.662000 4
153922.078000 496318.188000 1.137000 4
153921.344000 496318.063000 1.153000 4
153922.000000 496318.500000 1.019000 4
153921.922000 496318.813000 0.869000 4
153921.719000 496318.156000 0.905000 4
153920.969000 496319.531000 0.027000 4
153921.469000 496319.125000 0.848000 4
153920.594000 496319.406000 0.040000 4
153921.031000 496319.313000 1.042000 4
153921.188000 496318.656000 0.844000 4
153920.828000 496318.469000 0.229000 4
153919.922000 496318.656000 -0.103000 4
153920.375000 496318.469000 0.359000 4
153920.000000 496318.375000 0.235000 4
153920.125000 496319.406000 0.176000 4
153919.406000 496318.969000 0.589000 4
153919.234000 496318.188000 1.387000 4
153919.063000 496318.813000 1.271000 4
153918.625000 496318.719000 1.322000 4
153917.938000 496317.156000 1.688000 4
153918.859000 496317.813000 1.491000 4
153918.266000 496317.219000 1.398000 4
153917.859000 496317.469000 1.393000 4
153918.453000 496318.031000 1.206000 4
153918.188000 496317.531000 1.503000 4
153918.359000 496318.406000 1.995000 4
153918.016000 496318.188000 1.454000 4
153917.938000 496318.500000 1.484000 4
153916.359000 496317.219000 1.510000 4
153917.766000 496317.813000 1.557000 4
153917.438000 496317.313000 1.411000 4
153916.297000 496317.500000 1.487000 4
153916.703000 496317.219000 1.513000 4
153916.203000 496317.844000 1.494000 4
153917.094000 496317.281000 1.504000 4
153917.359000 496317.594000 1.042000 4
153916.609000 496317.563000 1.693000 4
153916.531000 496317.875000 1.605000 4
153917.016000 496317.594000 1.272000 4
153916.063000 496318.375000 0.679000 4
153916.141000 496318.125000 0.996000 4
153916.531000 496319.438000 0.585000 4
153916.828000 496318.313000 1.869000 4
153915.984000 496318.719000 0.846000 4
153917.188000 496318.250000 1.219000 4
153916.359000 496318.531000 1.911000 4
153916.219000 496319.094000 0.888000 4
153916.313000 496318.719000 0.788000 4
153917.109000 496318.563000 1.311000 4
153916.750000 496318.563000 1.644000 4
153918.531000 496319.094000 1.337000 4
153917.016000 496318.938000 1.356000 4
153917.531000 496318.719000 0.799000 4
153916.938000 496319.250000 1.191000 4
153918.453000 496319.375000 1.162000 4
153917.844000 496318.813000 1.299000 4
153917.453000 496319.063000 1.017000 4
153917.375000 496319.344000 1.028000 4
153917.766000 496319.156000 1.179000 4
153918.375000 496319.656000 1.079000 4
153918.297000 496320.000000 1.160000 4
153918.828000 496321.219000 0.745000 4
153919.063000 496321.969000 0.502000 4
153918.578000 496322.188000 0.833000 4
153918.672000 496321.844000 0.754000 4
153918.328000 496321.688000 1.622000 4
153917.953000 496321.344000 1.704000 4
153918.125000 496320.625000 1.446000 4
153918.422000 496321.313000 0.994000 4
153918.047000 496320.969000 1.627000 4
153918.734000 496320.125000 1.544000 4
153918.797000 496321.344000 1.901000 4
153918.578000 496320.719000 1.272000 4
153918.641000 496320.438000 1.497000 4
153919.219000 496321.375000 1.190000 4
153919.297000 496321.094000 1.462000 4
153918.906000 496319.438000 1.150000 4
153919.750000 496319.344000 0.421000 4
153919.328000 496319.281000 0.615000 4
153918.813000 496319.750000 1.157000 4
153918.984000 496320.594000 1.120000 4
153920.016000 496319.875000 1.424000 4
153919.250000 496319.625000 1.041000 4
153919.156000 496319.938000 1.080000 4
153919.641000 496319.750000 1.143000 4
153919.609000 496321.406000 0.708000 4
153920.406000 496320.156000 0.410000 4
153920.141000 496321.156000 0.812000 4
153920.234000 496320.781000 0.648000 4
153919.484000 496320.344000 0.545000 4
153918.953000 496320.750000 -0.799000 4
153919.406000 496320.625000 0.054000 4
153919.703000 496321.031000 0.254000 4
153919.344000 496320.938000 -0.359000 4
153920.406000 496321.719000 -0.536000 4
153920.844000 496321.563000 0.240000 4
153921.094000 496322.031000 0.763000 4
153921.031000 496322.250000 0.035000 4
153920.766000 496321.875000 0.054000 4
153920.297000 496322.156000 0.278000 4
153919.828000 496322.344000 0.214000 4
153920.203000 496322.500000 0.624000 4
153920.750000 496323.344000 1.337000 4
153920.484000 496322.938000 1.252000 4
153920.594000 496323.969000 1.429000 4
153920.672000 496323.625000 1.227000 4
153920.391000 496323.281000 1.118000 4
153920.234000 496323.938000 1.284000 4
153919.875000 496323.781000 0.917000 4
153920.313000 496323.625000 1.213000 4
153919.797000 496322.469000 1.482000 4
153920.016000 496323.188000 1.143000 4
153918.969000 496322.375000 1.607000 4
153919.469000 496323.750000 1.346000 4
153919.344000 496322.438000 1.165000 4
153919.547000 496323.438000 1.326000 4
153919.641000 496323.125000 1.422000 4
153919.266000 496322.750000 1.324000 4
153918.156000 496323.813000 1.591000 4
153919.109000 496323.406000 1.061000 4
153918.891000 496322.656000 0.995000 4
153918.000000 496322.969000 1.578000 4
153918.813000 496322.969000 1.119000 4
153918.719000 496323.313000 1.249000 4
153918.422000 496322.813000 0.954000 4
153918.250000 496323.438000 1.153000 4
153917.953000 496323.125000 -0.467000 4
153918.188000 496323.688000 0.385000 4
153918.219000 496323.594000 -0.888000 4
153918.891000 496324.219000 -0.598000 4
153917.781000 496323.750000 -0.618000 4
153918.516000 496324.094000 -0.634000 4
153917.609000 496324.469000 0.161000 4
153917.969000 496324.594000 -0.159000 4
153917.094000 496324.625000 -0.542000 4
153917.531000 496324.781000 -0.071000 4
153917.375000 496325.344000 -0.663000 4
153918.219000 496325.281000 -1.252000 4
153918.656000 496325.125000 -1.156000 4
153919.016000 496325.500000 -0.891000 4
153918.500000 496325.719000 -0.929000 4
153920.141000 496327.469000 -1.470000 4
153919.391000 496325.625000 -0.534000 4
153919.797000 496325.656000 -0.938000 4
153920.141000 496325.688000 -0.959000 4
153920.563000 496325.875000 -0.771000 4
153921.016000 496325.688000 -1.459000 4
153921.453000 496326.906000 -0.602000 4
153921.313000 496326.156000 -0.839000 4
153920.594000 496327.344000 -1.372000 4
153921.063000 496327.125000 -0.670000 4
153920.469000 496326.219000 -0.741000 4
153920.922000 496326.063000 -1.039000 4
153921.156000 496326.781000 -0.995000 4
153920.828000 496326.406000 -0.907000 4
153920.234000 496327.125000 -1.411000 4
153920.000000 496326.250000 -2.164000 4
153919.922000 496326.563000 -1.860000 4
153918.141000 496325.594000 -1.427000 4
153918.891000 496326.031000 -2.245000 4
153918.063000 496325.844000 -2.295000 4
153918.797000 496326.375000 -1.879000 4
153918.688000 496326.781000 -0.710000 4
153918.422000 496326.031000 -1.459000 4
153918.047000 496325.938000 -1.221000 4
153918.172000 496326.969000 -1.256000 4
153917.406000 496326.781000 -1.398000 4
153916.422000 496325.906000 -0.894000 4
153917.563000 496326.156000 -1.266000 4
153917.641000 496325.844000 -0.903000 4
153917.297000 496325.656000 -0.503000 4
153917.469000 496326.469000 -1.107000 4
153916.750000 496325.969000 -0.597000 4
153916.672000 496326.281000 -0.674000 4
153916.703000 496327.938000 -0.565000 4
153917.125000 496327.813000 -0.434000 4
153917.766000 496327.000000 -0.387000 4
153917.609000 496327.656000 -0.295000 4
153917.688000 496327.313000 -0.445000 4
153915.891000 496326.406000 -0.011000 4
153916.859000 496327.344000 -0.438000 4
153916.250000 496326.594000 -0.116000 4
153916.578000 496326.625000 -0.104000 4
153915.844000 496328.156000 -0.363000 4
153916.156000 496328.250000 -0.114000 4
153916.406000 496327.344000 0.258000 4
153916.234000 496327.938000 0.160000 4
153916.328000 496327.625000 0.127000 4
153915.922000 496327.875000 0.067000 4
153916.078000 496327.281000 -0.021000 4
153915.828000 496326.688000 -0.335000 4
153915.500000 496327.938000 -0.491000 4
153915.172000 496327.875000 -0.394000 4
153915.578000 496327.656000 -0.388000 4
153915.656000 496327.313000 -0.697000 4
153915.250000 496327.563000 -0.471000 4
153914.781000 496327.625000 -1.472000 4
153915.297000 496327.406000 -2.257000 4
153915.703000 496327.125000 -2.601000 4
153916.391000 496327.344000 -2.917000 4
153916.563000 496326.688000 -3.105000 4
153916.219000 496326.688000 -2.680000 4
153915.422000 496326.906000 -0.435000 4
153914.609000 496326.906000 -1.828000 4
153914.844000 496327.344000 -1.151000 4
153914.922000 496327.063000 -1.039000 4
153915.094000 496326.406000 -1.053000 4
153915.000000 496325.344000 -1.326000 4
153914.047000 496326.188000 -2.070000 4
153913.625000 496326.031000 -2.063000 4
153915.188000 496326.031000 -1.575000 4
153914.750000 496326.313000 -1.218000 4
153914.703000 496324.938000 -1.599000 4
153914.609000 496325.313000 -1.076000 4
153914.125000 496325.906000 -1.632000 4
153913.609000 496324.750000 -0.951000 4
153914.203000 496325.594000 -1.336000 4
153914.359000 496324.969000 -1.280000 4
153913.531000 496325.094000 -1.008000 4
153914.281000 496325.313000 -1.260000 4
153913.297000 496324.438000 -2.370000 4
153913.781000 496325.438000 -1.453000 4
153913.313000 496325.938000 -2.107000 4
153913.703000 496325.719000 -1.825000 4
153913.797000 496325.375000 -2.169000 4
153912.969000 496325.750000 -2.169000 4
153913.391000 496325.656000 -1.591000 4
153913.469000 496325.344000 -1.419000 4
153913.219000 496324.781000 -2.247000 4
153912.703000 496325.344000 -2.093000 4
153913.016000 496325.531000 -1.106000 4
153913.188000 496324.875000 -1.254000 4
153912.922000 496324.469000 -1.217000 4
153912.781000 496325.063000 -1.952000 4
153912.516000 496324.375000 -1.129000 4
153912.859000 496324.750000 -1.621000 4
153912.438000 496324.688000 -1.115000 4
153912.266000 496325.344000 -1.403000 4
153912.109000 496324.594000 -1.251000 4
153911.875000 496325.531000 -1.428000 4
153911.953000 496325.250000 -1.394000 4
153911.766000 496324.469000 -0.829000 4
153912.016000 496324.969000 -1.167000 4
153911.672000 496324.813000 -0.570000 4
153910.172000 496325.875000 -1.433000 4
153910.906000 496324.500000 -0.611000 4
153910.984000 496325.875000 -1.088000 4
153911.313000 496324.594000 -1.058000 4
153911.219000 496324.969000 -0.759000 4
153910.578000 496325.750000 -1.257000 4
153911.063000 496325.531000 -0.985000 4
153911.141000 496325.250000 -0.972000 4
153910.672000 496325.438000 -0.966000 4
153910.250000 496325.531000 -1.237000 4
153909.844000 496325.594000 -1.349000 4
153909.938000 496325.250000 -1.553000 4
153910.094000 496324.656000 -0.833000 4
153910.234000 496324.094000 -0.643000 4
153910.172000 496324.375000 -0.752000 4
153909.922000 496323.688000 -0.458000 4
153909.094000 496323.719000 -1.208000 4
153909.672000 496324.625000 -0.966000 4
153909.750000 496324.313000 -0.638000 4
153909.281000 496324.438000 -0.785000 4
153908.922000 496324.375000 -0.703000 4
153909.438000 496323.875000 -0.191000 4
153909.000000 496324.094000 -0.657000 4
153908.422000 496323.375000 -0.534000 4
153908.344000 496323.688000 -0.477000 4
153909.078000 496323.781000 -0.501000 4
153908.656000 496323.906000 -0.337000 4
153908.500000 496323.063000 -0.583000 4
153910.000000 496323.344000 -0.577000 4
153910.156000 496322.750000 -0.320000 4
153909.859000 496322.250000 -0.142000 4
153910.078000 496323.063000 -0.489000 4
153909.531000 496323.500000 -0.609000 4
153908.828000 496323.281000 -0.379000 4
153909.156000 496323.469000 -0.335000 4
153909.781000 496322.531000 -0.258000 4
153909.609000 496323.188000 -0.535000 4
153909.688000 496322.906000 -0.219000 4
153909.234000 496323.156000 -0.481000 4
153909.328000 496321.313000 -0.777000 4
153908.984000 496321.156000 -0.739000 4
153909.406000 496322.500000 -0.158000 4
153909.578000 496321.844000 -0.816000 4
153909.484000 496322.188000 -0.426000 4
153908.922000 496321.438000 -0.988000 4
153909.234000 496321.656000 -0.640000 4
153909.000000 496322.594000 -0.563000 4
153909.156000 496321.969000 -1.018000 4
153909.078000 496322.313000 -0.521000 4
153908.594000 496322.719000 -0.691000 4
153908.016000 496323.125000 -1.325000 4
153908.672000 496322.406000 -0.681000 4
153908.094000 496322.813000 -1.133000 4
153908.172000 496322.500000 -0.960000 4
153908.250000 496322.188000 -1.018000 4
153923.234000 496282.844000 -0.367000 5
153924.078000 496282.688000 -0.829000 5
153923.844000 496283.625000 -0.780000 5
153924.125000 496284.063000 -1.518000 5
153924.563000 496283.719000 -2.324000 5
153924.844000 496284.375000 -1.106000 5
153924.719000 496284.875000 -1.917000 5
153925.438000 496284.938000 -2.080000 5
153926.297000 496284.813000 -1.931000 5
153927.063000 496284.719000 -2.332000 5
153927.203000 496285.500000 -2.005000 5
153927.047000 496286.125000 -2.171000 5
153927.656000 496285.563000 -1.678000 5
153927.891000 496284.625000 -1.492000 5
153927.609000 496283.938000 -1.084000 5
153927.453000 496283.219000 -1.552000 5
153928.172000 496283.563000 -2.093000 5
153928.875000 496283.969000 -1.528000 5
153926.844000 496282.688000 -1.174000 5
153926.000000 496282.781000 -0.939000 5
153925.438000 496283.344000 -1.311000 5
153925.766000 496283.688000 -1.603000 5
153926.516000 496283.969000 -1.266000 5
153925.109000 496283.344000 -1.242000 5
153925.203000 496283.000000 -1.130000 5
153925.344000 496282.469000 -0.638000 5
153924.906000 496282.375000 0.048000 5
153925.594000 496282.750000 -0.480000 5
153925.672000 496282.469000 -0.539000 5
153925.531000 496283.031000 -1.072000 5
153926.750000 496283.031000 -1.054000 5
153927.234000 496282.469000 -1.245000 5
153927.516000 496282.938000 -1.119000 5
153927.859000 496282.969000 -1.447000 5
153926.828000 496284.031000 -1.394000 5
153928.219000 496283.375000 -1.193000 5
153927.766000 496283.313000 -1.242000 5
153927.344000 496283.625000 -0.984000 5
153927.266000 496283.969000 -0.909000 5
153927.672000 496283.656000 -0.917000 5
153928.375000 496284.250000 -0.939000 5
153927.188000 496284.250000 -1.343000 5
153928.078000 496283.938000 -1.869000 5
153927.422000 496284.625000 -0.917000 5
153927.516000 496284.281000 -1.010000 5
153928.313000 496284.500000 -1.301000 5
153927.969000 496284.313000 -1.524000 5
153927.578000 496285.844000 -1.949000 5
153926.797000 496285.719000 -2.183000 5
153926.047000 496285.781000 -1.902000 5
153927.125000 496285.813000 -1.974000 5
153927.297000 496285.156000 -2.097000 5
153926.125000 496285.469000 -2.064000 5
153926.219000 496285.094000 -2.313000 5
153925.625000 496285.625000 -2.205000 5
153925.859000 496284.688000 -1.729000 5
153925.781000 496285.000000 -1.892000 5
153924.609000 496285.281000 -1.576000 5
153925.672000 496284.063000 -1.385000 5
153925.016000 496283.750000 -0.598000 5
153925.594000 496284.375000 -1.369000 5
153925.500000 496284.688000 -1.259000 5
153925.094000 496284.688000 -0.722000 5
153925.203000 496284.313000 -1.161000 5
153924.781000 496284.625000 -1.493000 5
153924.625000 496283.469000 -1.526000 5
153924.484000 496282.688000 -2.011000 5
153924.281000 496284.781000 -1.538000 5
153924.375000 496284.406000 -2.047000 5
153923.969000 496284.688000 -1.605000 5
153924.453000 496284.094000 -1.861000 5
153924.031000 496284.406000 -1.447000 5
153924.281000 496283.438000 -1.466000 5
153924.516000 496283.875000 -1.000000 5
153923.672000 496284.250000 -0.969000 5
153924.188000 496283.813000 -0.958000 5
153924.828000 496282.656000 -0.262000 5
153924.781000 496282.875000 -1.250000 5
153924.141000 496282.438000 -0.243000 5
153924.359000 496283.156000 -1.144000 5
153923.922000 496283.313000 -0.867000 5
153923.484000 496283.563000 -0.629000 5
153924.000000 496283.031000 -0.514000 5
153923.313000 496282.563000 -0.271000 5
153935.484000 496287.656000 -1.781000 6
153936.063000 496287.000000 -1.657000 6
153936.906000 496286.844000 -1.660000 6
153936.656000 496286.125000 -2.141000 6
153937.469000 496286.125000 -2.231000 6
153937.656000 496286.969000 -2.399000 6
153937.891000 496287.563000 -3.112000 6
153938.078000 496286.844000 -3.389000 6
153937.344000 496286.625000 -3.480000 6
153937.781000 496286.531000 -3.388000 6
153937.594000 496287.281000 -2.824000 6
153937.906000 496286.031000 -2.212000 6
153938.438000 496285.438000 -1.847000 6
153939.250000 496285.719000 -1.343000 6
153938.719000 496286.313000 -0.798000 6
153939.375000 496286.781000 -0.509000 6
153939.234000 496287.344000 -1.255000 6
153939.984000 496287.531000 -1.190000 6
153940.234000 496286.563000 -1.172000 6
153940.422000 496285.844000 -1.681000 6
153940.891000 496285.500000 -1.017000 6
153941.188000 496285.938000 -1.546000 6
153941.375000 496286.594000 -1.038000 6
153942.063000 496287.063000 -0.701000 6
153941.500000 496287.813000 -0.510000 6
153940.859000 496288.563000 -0.579000 6
153940.047000 496288.750000 -0.898000 6
153940.719000 496289.094000 -1.523000 6
153940.281000 496289.469000 -2.321000 6
153940.047000 496290.344000 -2.671000 6
153940.344000 496290.594000 -2.714000 6
153940.922000 496290.063000 -3.124000 6
153940.984000 496289.844000 -2.318000 6
153940.516000 496289.906000 -2.879000 6
153939.766000 496289.844000 -2.555000 6
153940.125000 496290.031000 -2.638000 6
153940.203000 496289.719000 -2.495000 6
153940.516000 496288.531000 -1.917000 6
153940.359000 496289.125000 -2.073000 6
153940.219000 496289.656000 -0.650000 6
153940.844000 496290.375000 -0.356000 6
153939.969000 496290.656000 0.001000 6
153940.578000 496291.375000 -0.117000 6
153940.438000 496291.969000 -0.884000 6
153940.594000 496292.781000 -1.403000 6
153941.109000 496292.375000 -1.703000 6
153940.281000 496292.563000 -1.440000 6
153941.172000 496292.094000 -1.217000 6
153941.828000 496292.813000 -1.006000 6
153942.063000 496291.906000 -0.672000 6
153942.625000 496291.188000 -0.381000 6
153943.156000 496292.000000 -0.174000 6
153943.875000 496292.563000 -0.163000 6
153944.438000 496293.281000 -0.440000 6
153944.375000 496293.500000 -1.339000 6
153943.891000 496294.000000 -1.978000 6
153943.016000 496294.344000 -1.820000 6
153943.188000 496295.219000 -2.118000 6
153942.594000 496295.969000 -2.306000 6
153941.906000 496295.469000 -2.247000 6
153942.047000 496294.906000 -1.632000 6
153941.906000 496294.031000 -1.299000 6
153942.406000 496293.563000 -1.660000 6
153942.766000 496293.531000 -1.009000 6
153942.922000 496292.938000 -0.607000 6
153942.844000 496293.281000 -0.509000 6
153943.234000 496293.500000 -0.864000 6
153943.156000 496293.813000 -0.965000 6
153942.500000 496293.156000 -2.244000 6
153942.219000 496294.281000 -0.959000 6
153942.313000 496295.313000 -2.273000 6
153943.141000 496295.469000 -2.753000 6
153942.688000 496295.625000 -2.211000 6
153942.766000 496295.281000 -2.191000 6
153942.313000 496293.906000 -1.456000 6
153942.688000 496293.844000 -1.278000 6
153942.844000 496295.000000 -2.086000 6
153942.641000 496294.031000 -2.267000 6
153942.547000 496294.406000 -2.061000 6
153942.922000 496294.719000 -1.682000 6
153943.344000 496294.625000 -1.842000 6
153943.094000 496294.031000 -1.972000 6
153944.625000 496294.219000 -2.115000 6
153945.000000 496294.125000 -2.041000 6
153944.922000 496294.438000 -2.061000 6
153943.734000 496294.594000 -2.427000 6
153944.172000 496294.313000 -2.468000 6
153943.438000 496294.281000 -1.833000 6
153943.516000 496293.938000 -2.013000 6
153943.656000 496293.406000 -1.085000 6
153944.203000 496294.125000 -1.224000 6
153944.875000 496293.281000 -1.570000 6
153945.297000 496292.969000 -1.071000 6
153945.500000 496292.188000 -1.659000 6
153946.078000 496291.469000 -1.917000 6
153946.313000 496290.531000 -1.746000 6
153945.781000 496289.781000 -1.363000 6
153945.141000 496290.531000 -1.514000 6
153944.578000 496289.875000 -1.251000 6
153943.750000 496289.688000 -0.896000 6
153943.625000 496288.781000 -1.050000 6
153942.828000 496288.938000 -0.825000 6
153942.313000 496289.156000 0.001000 6
153942.563000 496289.969000 -0.323000 6
153943.344000 496289.906000 0.190000 6
153942.094000 496290.031000 -0.934000 6
153942.016000 496290.281000 -1.624000 6
153942.063000 496290.125000 -0.053000 6
153942.953000 496289.938000 -0.003000 6
