147304.437000 494803.000000 -1.260000 1
147304.031000 494802.500000 -1.057000 1
147304.391000 494803.219000 -1.499000 1
147304.375000 494803.188000 -1.442000 1
147304.141000 494802.750000 -1.190000 1
147304.141000 494802.719000 -1.202000 1
147304.250000 494802.938000 -1.382000 1
147304.000000 494802.688000 -1.227000 1
147304.234000 494802.906000 -1.435000 1
147304.234000 494803.125000 -1.587000 1
147304.047000 494803.219000 -1.472000 1
147304.125000 494802.906000 -1.452000 1
147303.750000 494802.594000 -1.560000 1
147303.828000 494803.156000 -1.804000 1
147303.750000 494803.156000 -1.798000 1
147303.891000 494802.875000 -1.570000 1
147303.437000 494802.344000 -1.611000 1
147303.562000 494802.594000 -1.737000 1
147303.344000 494802.313000 -1.705000 1
147303.594000 494802.844000 -1.877000 1
147303.453000 494802.531000 -1.837000 1
147303.437000 494802.938000 -2.035000 1
147303.172000 494802.406000 -1.831000 1
147303.312000 494802.688000 -1.920000 1
147302.578000 494803.000000 -2.396000 1
147303.156000 494802.969000 -2.193000 1
147302.937000 494802.563000 -1.831000 1
147302.797000 494802.969000 -2.384000 1
147302.937000 494803.000000 -2.279000 1
147303.031000 494802.750000 -2.057000 1
147302.922000 494802.906000 -2.156000 1
147301.844000 494803.000000 -2.552000 1
147300.937000 494802.750000 -2.836000 1
147300.656000 494802.375000 -2.005000 1
147299.750000 494802.281000 -1.717000 1
147299.250000 494802.313000 -2.578000 1
147298.656000 494802.625000 -3.070000 1
147298.734000 494802.531000 -3.086000 1
147298.812000 494802.281000 -3.010000 1
147298.953000 494802.563000 -3.030000 1
147299.375000 494802.563000 -2.694000 1
147299.437000 494802.406000 -2.495000 1
147299.656000 494802.125000 -1.379000 1
147299.547000 494802.188000 -1.921000 1
147299.766000 494802.156000 -1.500000 1
147299.922000 494802.531000 -2.495000 1
147300.047000 494802.625000 -2.387000 1
147300.141000 494802.375000 -2.113000 1
147300.547000 494802.188000 -1.776000 1
147301.062000 494801.531000 -1.305000 1
147301.203000 494800.625000 -1.700000 1
147300.500000 494800.219000 -2.170000 1
147300.312000 494800.688000 -2.981000 1
147300.094000 494800.844000 -3.633000 1
147300.000000 494800.813000 -3.519000 1
147299.984000 494800.656000 -3.359000 1
147300.375000 494800.750000 -3.471000 1
147300.109000 494800.656000 -3.317000 1
147300.469000 494800.625000 -3.223000 1
147300.531000 494800.625000 -3.118000 1
147300.047000 494800.625000 -2.755000 1
147300.234000 494800.531000 -2.625000 1
147300.406000 494800.594000 -2.620000 1
147300.484000 494800.625000 -2.492000 1
147300.125000 494800.375000 -2.326000 1
147300.312000 494800.406000 -2.385000 1
147300.359000 494800.406000 -2.315000 1
147300.641000 494800.500000 -2.214000 1
147301.047000 494800.281000 -1.427000 1
147300.875000 494800.469000 -1.438000 1
147301.281000 494800.406000 -1.524000 1
147301.703000 494800.531000 -0.700000 1
147302.391000 494800.875000 -1.207000 1
147302.562000 494800.563000 -0.995000 1
147302.453000 494800.531000 -1.013000 1
147302.281000 494800.625000 -1.158000 1
147301.641000 494800.531000 -0.457000 1
147301.094000 494800.438000 -1.506000 1
147301.156000 494800.469000 -1.583000 1
147300.984000 494800.656000 -1.561000 1
147301.672000 494801.313000 -0.891000 1
147301.094000 494800.906000 -1.683000 1
147301.422000 494801.156000 -0.856000 1
147301.578000 494801.438000 -0.910000 1
147301.453000 494801.281000 -0.905000 1
147300.875000 494801.094000 -1.656000 1
147301.172000 494801.125000 -1.236000 1
147301.328000 494801.469000 -1.137000 1
147300.781000 494801.406000 -1.465000 1
147300.734000 494801.438000 -1.486000 1
147300.516000 494802.531000 -1.803000 1
147300.766000 494802.500000 -2.027000 1
147300.594000 494802.625000 -2.220000 1
147300.766000 494802.594000 -2.218000 1
147300.828000 494802.531000 -2.655000 1
147300.766000 494802.875000 -3.029000 1
147301.484000 494803.063000 -3.692000 1
147301.672000 494803.969000 -3.389000 1
147302.484000 494804.281000 -2.972000 1
147303.219000 494804.688000 -3.305000 1
147304.047000 494804.750000 -3.032000 1
147304.234000 494805.188000 -2.647000 1
147303.937000 494805.063000 -2.024000 1
147303.016000 494804.844000 -2.232000 1
147302.859000 494804.031000 -1.849000 1
147303.484000 494804.281000 -1.473000 1
147303.734000 494804.313000 -1.342000 1
147303.344000 494804.281000 -1.617000 1
147303.094000 494804.188000 -1.766000 1
147302.891000 494804.219000 -1.815000 1
147302.969000 494804.250000 -2.002000 1
147302.984000 494804.344000 -2.099000 1
147303.219000 494804.438000 -1.879000 1
147303.125000 494804.594000 -1.908000 1
147303.594000 494804.406000 -1.460000 1
147303.125000 494804.688000 -1.978000 1
147303.281000 494804.938000 -1.727000 1
147303.687000 494805.031000 -1.341000 1
147303.562000 494805.250000 -1.448000 1
147303.312000 494805.094000 -1.719000 1
147303.359000 494804.750000 -1.862000 1
147303.797000 494805.219000 -1.560000 1
147304.109000 494805.313000 -2.823000 1
147304.000000 494805.156000 -2.823000 1
147304.297000 494804.656000 -2.780000 1
147303.859000 494805.156000 -2.962000 1
147303.937000 494804.969000 -2.940000 1
147303.828000 494804.188000 -3.583000 1
147303.828000 494804.781000 -3.044000 1
147303.781000 494804.594000 -3.032000 1
147303.703000 494804.813000 -3.063000 1
147303.641000 494804.375000 -3.202000 1
147303.562000 494804.469000 -3.140000 1
147303.078000 494804.781000 -3.610000 1
147303.281000 494804.688000 -3.540000 1
147303.422000 494804.688000 -3.221000 1
147303.187000 494804.500000 -3.276000 1
147302.844000 494804.500000 -2.347000 1
147302.969000 494804.594000 -3.400000 1
147302.406000 494804.688000 -3.551000 1
147302.687000 494804.656000 -3.481000 1
147302.437000 494804.594000 -3.555000 1
147302.844000 494804.375000 -3.271000 1
147302.297000 494804.313000 -3.400000 1
147301.062000 494804.094000 -3.542000 1
147302.141000 494804.156000 -3.337000 1
147302.016000 494804.188000 -3.427000 1
147301.391000 494804.125000 -3.531000 1
147301.797000 494804.219000 -3.473000 1
147301.687000 494804.219000 -3.532000 1
147301.578000 494804.125000 -3.479000 1
147300.922000 494803.813000 -3.533000 1
147301.562000 494803.969000 -3.437000 1
147301.250000 494803.844000 -3.501000 1
147300.594000 494803.625000 -3.522000 1
147300.812000 494802.594000 -2.805000 1
147300.922000 494802.813000 -2.932000 1
147300.984000 494802.688000 -2.266000 1
147301.047000 494802.719000 -2.817000 1
147301.078000 494803.031000 -2.911000 1
147301.203000 494802.594000 -2.736000 1
147301.187000 494803.000000 -2.860000 1
147301.359000 494802.906000 -2.730000 1
147301.453000 494802.656000 -2.590000 1
147301.422000 494802.750000 -2.641000 1
147301.562000 494803.031000 -2.703000 1
147301.594000 494802.969000 -2.614000 1
147302.359000 494802.969000 -2.435000 1
147301.172000 494802.594000 -2.051000 1
147302.781000 494802.625000 -2.015000 1
147302.687000 494802.813000 -2.094000 1
147302.109000 494802.906000 -2.447000 1
147301.719000 494802.750000 -2.433000 1
147302.328000 494802.844000 -2.383000 1
147301.234000 494802.469000 -1.932000 1
147302.719000 494802.594000 -1.880000 1
147302.437000 494802.750000 -2.220000 1
147301.375000 494802.719000 -2.090000 1
147301.297000 494802.469000 -1.804000 1
147301.984000 494802.688000 -2.330000 1
147302.250000 494802.781000 -2.252000 1
147301.406000 494802.656000 -1.953000 1
147301.562000 494802.531000 -1.671000 1
147302.250000 494802.719000 -1.978000 1
147301.656000 494802.719000 -1.875000 1
147301.719000 494802.250000 -1.343000 1
147301.844000 494802.531000 -1.445000 1
147302.219000 494802.813000 -1.439000 1
147301.984000 494802.344000 -1.144000 1
147302.234000 494802.813000 -1.203000 1
147302.000000 494802.344000 -0.964000 1
147302.109000 494802.625000 -1.168000 1
147302.109000 494802.563000 -1.173000 1
147302.625000 494802.844000 -0.825000 1
147302.375000 494802.750000 -1.072000 1
147302.219000 494802.438000 -1.028000 1
147302.406000 494802.344000 -1.111000 1
147301.906000 494802.250000 -0.821000 1
147302.750000 494802.844000 -0.661000 1
147302.547000 494802.313000 -0.883000 1
147301.687000 494803.031000 -0.046000 1
147303.187000 494802.719000 0.163000 1
147301.891000 494802.156000 -0.755000 1
147302.094000 494802.188000 -0.839000 1
147302.828000 494803.063000 -0.171000 1
147302.656000 494802.125000 -0.745000 1
147302.953000 494801.500000 -0.253000 1
147302.875000 494801.531000 -0.277000 1
147302.797000 494801.813000 -0.481000 1
147302.937000 494802.125000 -0.505000 1
147302.750000 494802.750000 -0.559000 1
147302.000000 494802.031000 -0.535000 1
147302.500000 494802.344000 -0.437000 1
147302.422000 494802.500000 -0.243000 1
147302.531000 494802.375000 0.009000 1
147302.453000 494802.344000 0.212000 1
147302.469000 494802.344000 0.562000 1
147302.297000 494802.375000 0.792000 1
147302.391000 494802.250000 0.659000 1
147301.937000 494801.969000 -0.081000 1
147301.859000 494801.875000 0.293000 1
147302.062000 494801.813000 0.245000 1
147302.109000 494801.625000 0.622000 1
147302.203000 494801.375000 0.745000 1
147302.062000 494801.531000 0.783000 1
147302.547000 494801.031000 2.438000 1
147302.375000 494800.844000 2.233000 1
147301.906000 494801.594000 1.000000 1
147302.656000 494801.188000 2.147000 1
147301.891000 494800.969000 2.450000 1
147302.016000 494801.531000 1.062000 1
147302.250000 494801.031000 2.353000 1
147302.516000 494801.125000 2.181000 1
147302.609000 494801.281000 1.795000 1
147302.016000 494801.188000 2.306000 1
147302.406000 494801.281000 1.607000 1
147302.328000 494801.156000 1.976000 1
147302.031000 494801.125000 1.565000 1
147301.844000 494801.500000 1.483000 1
147301.875000 494801.344000 1.919000 1
147303.078000 494802.125000 2.322000 1
147302.422000 494802.313000 1.067000 1
147302.984000 494802.125000 2.375000 1
147302.703000 494802.031000 2.552000 1
147302.828000 494802.250000 2.322000 1
147302.359000 494802.281000 1.400000 1
147302.469000 494802.156000 2.363000 1
147302.219000 494802.156000 2.381000 1
147302.516000 494802.219000 1.918000 1
147302.312000 494802.219000 2.281000 1
147302.391000 494802.344000 1.843000 1
147302.328000 494802.313000 2.038000 1
147303.094000 494802.844000 2.342000 1
147301.906000 494803.094000 1.606000 1
147302.344000 494802.625000 1.952000 1
147303.016000 494803.313000 2.321000 1
147302.859000 494803.375000 2.134000 1
147302.187000 494803.219000 1.934000 1
147302.391000 494803.250000 1.995000 1
147302.094000 494803.094000 2.288000 1
147301.797000 494805.219000 1.783000 1
147301.047000 494804.844000 1.797000 1
147301.922000 494804.313000 2.164000 1
147301.797000 494804.469000 1.944000 1
147301.516000 494804.719000 1.725000 1
147301.391000 494804.906000 1.928000 1
147301.656000 494804.688000 2.029000 1
147301.984000 494804.938000 2.257000 1
147300.641000 494804.688000 3.312000 1
147300.969000 494804.719000 2.295000 1
147300.687000 494804.688000 2.663000 1
147300.875000 494804.563000 2.528000 1
147300.625000 494804.813000 2.960000 1
147301.172000 494804.563000 2.495000 1
147300.812000 494804.531000 3.087000 1
147301.594000 494805.094000 3.118000 1
147301.375000 494804.500000 2.852000 1
147301.562000 494804.906000 3.085000 1
147301.281000 494804.406000 2.898000 1
147301.703000 494804.938000 3.191000 1
147301.125000 494804.531000 3.102000 1
147301.437000 494804.781000 3.062000 1
147301.516000 494804.531000 2.922000 1
147301.703000 494804.469000 3.163000 1
147301.812000 494804.469000 3.682000 1
147300.578000 494804.625000 3.759000 1
147300.766000 494804.531000 3.740000 1
147300.531000 494804.781000 4.283000 1
147301.516000 494804.625000 3.783000 1
147301.078000 494804.500000 3.719000 1
147301.391000 494804.656000 3.801000 1
147301.719000 494804.281000 3.929000 1
147301.797000 494804.313000 4.058000 1
147300.672000 494804.344000 4.038000 1
147301.375000 494804.344000 3.844000 1
147301.703000 494804.188000 4.426000 1
147301.625000 494804.125000 4.234000 1
147301.562000 494804.313000 4.137000 1
147301.344000 494804.750000 4.281000 1
147301.016000 494804.438000 4.153000 1
147301.344000 494804.625000 4.354000 1
147301.484000 494804.188000 4.462000 1
147301.234000 494804.500000 4.346000 1
147301.312000 494804.313000 4.473000 1
147301.109000 494804.250000 4.467000 1
147300.937000 494804.313000 4.444000 1
147300.562000 494804.688000 4.504000 1
147300.484000 494804.750000 4.776000 1
147300.516000 494804.719000 5.259000 1
147299.344000 494803.656000 5.178000 1
147299.125000 494803.594000 5.390000 1
147299.422000 494803.750000 4.964000 1
147299.844000 494803.875000 5.440000 1
147300.109000 494804.031000 5.114000 1
147300.000000 494803.813000 5.280000 1
147301.187000 494804.063000 4.544000 1
147301.062000 494804.063000 4.533000 1
147300.797000 494804.031000 4.488000 1
147300.969000 494804.000000 4.588000 1
147301.359000 494803.719000 5.258000 1
147301.281000 494803.844000 5.025000 1
147301.078000 494803.875000 4.745000 1
147300.953000 494803.844000 4.610000 1
147301.172000 494803.656000 5.249000 1
147300.469000 494803.406000 5.144000 1
147300.844000 494803.750000 4.734000 1
147301.000000 494803.719000 5.118000 1
147300.937000 494802.844000 5.335000 1
147300.750000 494803.500000 5.202000 1
147300.844000 494803.656000 4.774000 1
147300.750000 494803.594000 4.996000 1
147300.734000 494803.188000 5.271000 1
147300.859000 494803.438000 5.201000 1
147301.078000 494802.938000 4.964000 1
147301.484000 494802.406000 3.298000 1
147301.125000 494802.219000 2.633000 1
147300.281000 494801.844000 2.400000 1
147300.281000 494801.500000 3.297000 1
147300.375000 494801.375000 3.506000 1
147300.000000 494801.063000 4.296000 1
147299.344000 494800.375000 4.276000 1
147299.781000 494800.156000 3.453000 1
147299.406000 494800.344000 2.846000 1
147299.531000 494800.344000 3.051000 1
147299.578000 494800.031000 3.294000 1
147299.828000 494800.063000 3.401000 1
147299.375000 494800.469000 3.464000 1
147299.375000 494800.375000 3.614000 1
147299.500000 494800.375000 3.686000 1
147299.344000 494801.625000 4.540000 1
147299.359000 494801.125000 5.372000 1
147300.281000 494800.813000 5.479000 1
147299.469000 494801.000000 5.921000 1
147299.250000 494801.063000 6.505000 1
147298.656000 494801.594000 6.982000 1
147298.859000 494802.500000 6.775000 1
147299.750000 494802.813000 7.082000 1
147299.609000 494803.219000 7.079000 1
147299.437000 494804.063000 6.652000 1
147300.047000 494804.094000 6.449000 1
147299.437000 494804.063000 6.873000 1
147299.547000 494803.906000 6.576000 1
147299.797000 494803.969000 6.873000 1
147299.562000 494802.969000 7.187000 1
147298.687000 494802.438000 6.674000 1
147298.734000 494802.250000 6.818000 1
147298.547000 494802.156000 6.708000 1
147298.922000 494801.625000 7.342000 1
147298.578000 494801.906000 6.734000 1
147298.828000 494801.563000 6.885000 1
147298.734000 494802.219000 4.150000 1
147299.234000 494802.281000 3.290000 1
147299.016000 494802.344000 3.231000 1
147298.453000 494802.063000 4.690000 1
147298.969000 494802.281000 3.705000 1
147298.562000 494802.281000 4.457000 1
147298.734000 494802.188000 4.183000 1
147298.656000 494802.125000 4.499000 1
147298.625000 494802.000000 4.425000 1
147298.891000 494802.188000 4.187000 1
147299.062000 494802.031000 4.163000 1
147299.156000 494801.875000 4.198000 1
147299.078000 494801.781000 4.685000 1
147300.344000 494800.906000 5.067000 1
147299.359000 494800.563000 4.335000 1
147300.437000 494801.063000 4.765000 1
147300.203000 494801.156000 4.324000 1
147300.500000 494801.125000 4.263000 1
147300.219000 494802.000000 1.626000 1
147300.469000 494802.125000 1.711000 1
147300.078000 494802.094000 1.746000 1
147300.359000 494801.563000 2.788000 1
147300.250000 494801.969000 1.972000 1
147300.359000 494801.938000 2.003000 1
147300.172000 494801.844000 2.305000 1
147300.625000 494801.719000 3.093000 1
147300.500000 494801.844000 2.682000 1
147300.594000 494802.000000 2.388000 1
147300.484000 494802.813000 4.348000 1
147300.984000 494802.875000 4.798000 1
147301.828000 494802.281000 3.674000 1
147301.781000 494802.313000 4.458000 1
147301.375000 494802.375000 4.564000 1
147300.703000 494802.063000 4.496000 1
147301.687000 494802.406000 4.340000 1
147300.875000 494801.969000 4.721000 1
147301.594000 494802.344000 4.463000 1
147302.047000 494801.969000 3.872000 1
147301.922000 494802.031000 3.856000 1
147301.984000 494801.781000 3.947000 1
147300.937000 494802.063000 4.333000 1
147301.187000 494801.375000 3.671000 1
147301.453000 494802.031000 4.395000 1
147301.625000 494801.938000 4.297000 1
147301.016000 494801.500000 3.879000 1
147301.187000 494801.875000 4.047000 1
147301.219000 494801.406000 4.096000 1
147301.453000 494801.563000 4.164000 1
147301.984000 494800.750000 4.325000 1
147301.437000 494800.750000 4.891000 1
147301.500000 494800.969000 4.938000 1
147301.562000 494802.188000 4.551000 1
147301.859000 494801.656000 4.432000 1
147301.953000 494801.781000 4.511000 1
147301.656000 494801.594000 4.842000 1
147302.016000 494801.563000 5.110000 1
147301.906000 494801.750000 5.090000 1
147301.562000 494801.438000 5.106000 1
147300.609000 494800.906000 5.851000 1
147301.891000 494801.375000 5.265000 1
147301.797000 494801.563000 5.286000 1
147301.328000 494801.438000 5.146000 1
147300.797000 494800.906000 6.304000 1
147301.437000 494801.188000 5.193000 1
147300.953000 494800.813000 6.346000 1
147301.719000 494801.500000 5.351000 1
147300.859000 494800.938000 6.256000 1
147301.344000 494801.188000 6.571000 1
147300.906000 494800.938000 5.658000 1
147300.922000 494801.094000 5.543000 1
147301.000000 494800.813000 5.701000 1
147300.844000 494800.969000 5.918000 1
147300.734000 494801.156000 5.640000 1
147300.797000 494801.875000 5.162000 1
147301.266000 494801.375000 5.665000 1
147301.047000 494801.250000 5.704000 1
147301.453000 494802.094000 5.564000 1
147301.187000 494801.250000 6.002000 1
147301.172000 494801.500000 5.556000 1
147301.094000 494801.438000 5.679000 1
147300.875000 494801.469000 5.690000 1
147301.391000 494802.031000 6.029000 1
147301.297000 494801.906000 5.961000 1
147301.203000 494802.188000 5.952000 1
147301.031000 494801.813000 5.751000 1
147300.875000 494802.750000 5.743000 1
147300.078000 494802.313000 7.048000 1
147300.062000 494802.406000 6.931000 1
147300.281000 494802.469000 6.858000 1
147300.844000 494802.625000 6.323000 1
147300.687000 494802.500000 6.481000 1
147300.766000 494802.563000 5.997000 1
147299.875000 494802.406000 6.881000 1
147299.812000 494803.906000 6.101000 1
147300.172000 494803.500000 5.393000 1
147300.656000 494803.094000 5.655000 1
147300.687000 494802.688000 5.809000 1
147300.578000 494803.313000 5.677000 1
147300.156000 494802.469000 6.767000 1
147299.906000 494803.750000 6.424000 1
147299.969000 494803.688000 6.244000 1
147300.500000 494802.781000 5.705000 1
147300.359000 494802.563000 6.423000 1
147299.828000 494802.969000 6.775000 1
147300.141000 494802.500000 6.497000 1
147300.437000 494802.719000 6.133000 1
147299.969000 494802.563000 6.516000 1
147299.859000 494803.469000 6.310000 1
147300.297000 494802.625000 5.874000 1
147300.250000 494802.719000 6.256000 1
147300.031000 494803.313000 6.238000 1
147300.031000 494802.625000 6.042000 1
147299.875000 494802.688000 4.344000 1
147300.281000 494803.031000 4.966000 1
147298.828000 494802.125000 4.698000 1
147300.312000 494802.656000 4.885000 1
147299.422000 494803.406000 4.867000 1
147300.109000 494802.750000 5.726000 1
147299.016000 494802.031000 4.821000 1
147300.141000 494802.688000 5.000000 1
147299.453000 494803.094000 5.717000 1
147298.937000 494801.563000 6.639000 1
147299.594000 494801.250000 5.803000 1
147299.328000 494801.156000 6.018000 1
147299.250000 494801.688000 6.639000 1
147298.719000 494801.656000 6.515000 1
147299.047000 494801.250000 6.225000 1
147299.172000 494801.375000 5.287000 1
147299.328000 494801.688000 5.281000 1
147298.906000 494801.625000 6.284000 1
147299.031000 494801.719000 6.319000 1
147299.187000 494801.969000 5.581000 1
147298.312000 494802.375000 4.831000 1
147299.047000 494802.281000 5.924000 1
147298.531000 494802.156000 6.530000 1
147298.781000 494801.750000 6.106000 1
147298.922000 494802.000000 6.003000 1
147298.656000 494802.375000 6.382000 1
147298.375000 494801.781000 6.367000 1
147298.781000 494802.125000 5.349000 1
147298.562000 494802.500000 6.167000 1
147298.687000 494802.344000 5.762000 1
147298.250000 494801.844000 6.043000 1
147298.234000 494802.281000 5.272000 1
147298.078000 494803.906000 7.022000 1
147297.828000 494803.875000 7.644000 1
147297.734000 494804.000000 7.477000 1
147297.828000 494804.188000 7.284000 1
147297.891000 494804.031000 7.409000 1
147297.906000 494803.969000 7.235000 1
147298.328000 494803.688000 6.080000 1
147297.969000 494804.125000 6.932000 1
147298.109000 494804.313000 6.698000 1
147298.266000 494804.219000 6.429000 1
147296.828000 494804.188000 6.460000 1
147297.922000 494803.563000 6.840000 1
147297.000000 494803.406000 6.400000 1
147297.437000 494803.250000 6.606000 1
147298.000000 494804.438000 6.579000 1
147297.578000 494803.219000 6.326000 1
147297.984000 494804.063000 6.821000 1
147297.625000 494803.250000 6.273000 1
147298.141000 494803.969000 6.590000 1
147298.047000 494804.250000 6.548000 1
147297.328000 494803.563000 6.713000 1
147297.000000 494803.844000 6.175000 1
147297.203000 494803.688000 6.610000 1
147297.187000 494803.844000 6.645000 1
147297.859000 494804.156000 6.622000 1
147297.719000 494804.344000 6.406000 1
147297.297000 494804.031000 6.386000 1
147297.812000 494804.469000 6.138000 1
147298.031000 494804.406000 5.811000 1
147297.391000 494803.969000 5.867000 1
147297.281000 494803.875000 5.545000 1
147297.547000 494804.281000 5.954000 1
147297.250000 494804.281000 5.718000 1
147297.781000 494804.625000 4.685000 1
147298.312000 494804.500000 4.461000 1
147298.359000 494804.563000 4.722000 1
147297.312000 494804.844000 4.143000 1
147297.062000 494805.688000 3.722000 1
147297.328000 494805.625000 2.764000 1
147297.453000 494805.531000 2.895000 1
147297.375000 494805.281000 3.118000 1
147297.625000 494805.406000 3.310000 1
147297.328000 494805.313000 3.144000 1
147297.266000 494805.531000 3.138000 1
147297.531000 494805.750000 3.388000 1
147297.156000 494805.875000 3.467000 1
147296.922000 494805.906000 3.556000 1
147296.984000 494805.938000 3.611000 1
147296.797000 494805.656000 3.752000 1
147296.875000 494805.688000 3.745000 1
147297.703000 494804.906000 3.312000 1
147297.187000 494805.469000 3.635000 1
147296.953000 494805.500000 3.917000 1
147297.500000 494805.188000 3.493000 1
147297.047000 494804.313000 4.257000 1
147297.031000 494803.781000 5.369000 1
147296.672000 494804.563000 4.944000 1
147295.859000 494804.281000 5.080000 1
147295.562000 494804.313000 5.044000 1
147295.391000 494804.531000 4.606000 1
147295.078000 494804.313000 4.920000 1
147295.281000 494804.344000 4.803000 1
147295.125000 494804.000000 4.727000 1
147295.172000 494803.938000 4.957000 1
147295.516000 494803.094000 4.705000 1
147295.609000 494803.156000 4.710000 1
147295.375000 494802.594000 4.230000 1
147295.437000 494802.344000 4.066000 1
147295.734000 494802.188000 4.645000 1
147296.031000 494803.125000 4.328000 1
147295.750000 494803.000000 4.155000 1
147295.922000 494802.906000 4.483000 1
147295.891000 494802.375000 4.553000 1
147296.031000 494802.563000 3.723000 1
147296.328000 494803.063000 2.918000 1
147296.484000 494803.406000 2.200000 1
147296.578000 494803.031000 2.229000 1
147296.391000 494803.219000 2.440000 1
147296.406000 494803.188000 2.533000 1
147296.297000 494803.094000 2.778000 1
147296.109000 494803.094000 2.958000 1
147296.187000 494802.781000 2.907000 1
147296.187000 494802.875000 2.984000 1
147296.078000 494802.656000 3.112000 1
147296.109000 494802.906000 4.286000 1
147295.844000 494802.375000 4.444000 1
147295.734000 494802.438000 4.111000 1
147295.891000 494802.406000 3.850000 1
147296.109000 494802.813000 4.264000 1
147295.969000 494802.469000 4.187000 1
147296.781000 494801.531000 4.208000 1
147297.062000 494801.781000 3.892000 1
147297.250000 494801.063000 3.608000 1
147297.297000 494801.813000 3.798000 1
147297.578000 494801.781000 3.942000 1
147297.578000 494801.031000 3.330000 1
147297.406000 494801.406000 3.741000 1
147297.547000 494801.219000 3.485000 1
147297.750000 494801.719000 3.843000 1
147297.594000 494801.719000 3.056000 1
147297.609000 494801.625000 2.272000 1
147297.891000 494801.563000 2.442000 1
147297.797000 494801.594000 2.331000 1
147297.812000 494802.000000 1.922000 1
147298.016000 494801.969000 1.890000 1
147297.547000 494802.375000 1.436000 1
147297.641000 494802.156000 1.440000 1
147298.109000 494802.125000 1.628000 1
147297.922000 494802.219000 1.661000 1
147297.734000 494802.344000 1.221000 1
147298.187000 494802.250000 1.247000 1
147298.094000 494802.438000 0.880000 1
147298.328000 494802.250000 0.856000 1
147298.281000 494802.375000 0.786000 1
147298.172000 494802.563000 0.559000 1
147298.266000 494802.719000 0.205000 1
147298.469000 494801.469000 0.225000 1
147298.125000 494800.781000 0.696000 1
147297.766000 494800.688000 1.250000 1
147298.141000 494800.406000 0.434000 1
147298.047000 494800.688000 1.129000 1
147298.187000 494800.531000 0.691000 1
147298.187000 494800.594000 0.697000 1
147298.328000 494800.844000 0.688000 1
147298.344000 494800.938000 0.740000 1
147298.250000 494801.063000 0.636000 1
147298.437000 494801.031000 0.457000 1
147298.453000 494801.063000 0.328000 1
147298.344000 494801.188000 0.278000 1
147298.562000 494801.281000 0.339000 1
147298.359000 494802.188000 0.037000 1
147298.437000 494802.594000 0.016000 1
147298.469000 494802.406000 -0.228000 1
147298.891000 494802.938000 0.320000 1
147298.547000 494802.781000 -0.287000 1
147298.625000 494802.719000 -0.185000 1
147298.641000 494802.313000 -0.352000 1
147298.969000 494803.000000 -0.096000 1
147299.281000 494802.688000 -0.689000 1
147299.266000 494802.625000 -0.623000 1
147299.453000 494802.719000 -0.566000 1
147300.062000 494802.375000 -0.793000 1
147300.250000 494802.156000 -0.696000 1
147299.953000 494802.188000 -0.523000 1
147300.375000 494802.031000 -0.270000 1
147300.562000 494801.688000 0.475000 1
147300.797000 494801.719000 0.474000 1
147300.766000 494801.781000 0.513000 1
147300.500000 494802.000000 0.129000 1
147299.562000 494802.500000 0.099000 1
147300.297000 494801.969000 1.236000 1
147299.766000 494802.563000 0.162000 1
147300.297000 494802.063000 1.164000 1
147300.328000 494801.969000 0.622000 1
147300.328000 494802.063000 0.472000 1
147300.109000 494802.094000 1.044000 1
147300.172000 494802.125000 0.480000 1
147299.766000 494802.406000 0.358000 1
147299.672000 494802.438000 0.448000 1
147299.312000 494802.938000 0.564000 1
147299.312000 494802.938000 0.633000 1
147299.922000 494802.344000 1.011000 1
147299.125000 494802.906000 0.718000 1
147299.250000 494802.844000 0.946000 1
147299.250000 494802.844000 1.035000 1
147299.406000 494802.844000 1.052000 1
147299.047000 494802.813000 1.227000 1
147299.156000 494802.719000 1.228000 1
147298.781000 494802.844000 1.393000 1
147299.141000 494802.656000 1.409000 1
147299.625000 494802.938000 2.178000 1
147299.000000 494802.781000 1.699000 1
147299.234000 494802.594000 1.831000 1
147299.109000 494802.688000 1.847000 1
147298.672000 494802.813000 2.572000 1
147298.719000 494802.906000 2.825000 1
147298.516000 494802.906000 2.831000 1
147298.437000 494803.031000 2.846000 1
147298.687000 494802.969000 3.564000 1
147298.437000 494802.844000 3.236000 1
147298.344000 494802.875000 3.218000 1
147298.344000 494802.688000 3.556000 1
147298.297000 494802.813000 3.710000 1
147298.219000 494802.719000 4.092000 1
147297.875000 494804.375000 4.657000 1
147298.297000 494804.063000 4.859000 1
147298.094000 494804.313000 4.437000 1
147297.031000 494803.625000 4.296000 1
147297.203000 494803.531000 4.157000 1
147297.219000 494803.969000 3.823000 1
147297.328000 494804.156000 3.639000 1
147297.406000 494803.875000 3.604000 1
147297.531000 494803.500000 3.437000 1
147297.781000 494803.531000 3.389000 1
147297.734000 494804.469000 2.907000 1
147297.641000 494803.688000 3.168000 1
147297.375000 494803.625000 2.446000 1
147297.766000 494803.813000 2.158000 1
147297.719000 494804.000000 1.451000 1
147297.531000 494803.750000 2.197000 1
147297.484000 494803.813000 2.209000 1
147297.625000 494803.875000 1.853000 1
147297.203000 494803.000000 1.871000 1
147296.937000 494803.125000 2.002000 1
147296.672000 494803.188000 1.870000 1
147297.031000 494803.250000 1.712000 1
147296.781000 494803.375000 1.688000 1
147297.125000 494803.406000 1.292000 1
147296.641000 494803.781000 0.069000 1
147296.781000 494803.500000 -0.671000 1
147296.547000 494804.313000 -1.148000 1
147296.797000 494803.844000 -1.687000 1
147296.687000 494804.156000 -1.494000 1
147296.437000 494804.156000 -1.472000 1
147296.297000 494804.281000 -1.370000 1
147296.172000 494804.031000 -1.185000 1
147296.391000 494803.938000 -1.290000 1
147296.672000 494803.625000 -1.481000 1
147296.344000 494804.000000 -1.158000 1
147296.922000 494803.781000 -0.671000 1
147296.687000 494803.313000 -0.515000 1
147296.906000 494803.875000 -0.623000 1
147296.687000 494803.750000 -0.665000 1
147296.641000 494803.313000 -0.461000 1
147296.547000 494804.000000 -0.499000 1
147296.828000 494803.781000 -0.143000 1
147296.359000 494803.313000 0.912000 1
147296.594000 494803.344000 0.872000 1
147296.641000 494803.469000 0.399000 1
147296.703000 494803.500000 0.582000 1
147296.484000 494803.563000 0.886000 1
147296.625000 494803.844000 0.871000 1
147296.516000 494804.625000 1.460000 1
147296.328000 494804.750000 1.602000 1
147296.344000 494804.219000 1.135000 1
147296.406000 494803.969000 1.279000 1
147296.328000 494803.844000 1.658000 1
147296.266000 494804.156000 1.206000 1
147296.203000 494804.094000 1.679000 1
147296.266000 494804.094000 1.499000 1
147296.125000 494804.313000 1.241000 1
147296.156000 494803.906000 1.743000 1
147296.187000 494803.563000 1.645000 1
147296.000000 494804.063000 1.446000 1
147295.391000 494804.125000 1.780000 1
147295.922000 494804.594000 1.744000 1
147296.203000 494803.219000 2.684000 1
147295.734000 494804.906000 2.259000 1
147295.734000 494804.719000 2.218000 1
147295.609000 494804.656000 2.342000 1
147296.156000 494804.094000 2.326000 1
147296.047000 494803.906000 2.558000 1
147296.062000 494803.063000 3.541000 1
147296.031000 494804.063000 4.709000 1
147295.594000 494803.219000 4.331000 1
147295.672000 494803.219000 4.223000 1
147295.828000 494803.125000 3.756000 1
147295.547000 494803.969000 2.998000 1
147295.828000 494803.906000 2.988000 1
147295.391000 494804.906000 4.216000 1
147295.578000 494804.219000 4.150000 1
147295.469000 494804.625000 4.139000 1
147295.344000 494804.063000 3.349000 1
147295.359000 494804.313000 3.433000 1
147295.266000 494804.156000 3.801000 1
147295.203000 494804.406000 3.733000 1
147295.922000 494798.719000 -0.638000 2
147296.703000 494799.281000 -0.755000 2
147296.312000 494799.625000 -0.036000 2
147296.953000 494799.250000 0.224000 2
147296.781000 494799.156000 0.376000 2
147297.219000 494799.156000 -1.326000 2
147297.156000 494799.344000 -2.271000 2
147297.969000 494799.281000 -2.678000 2
147297.891000 494799.688000 -3.523000 2
147297.297000 494799.031000 -3.517000 2
147297.187000 494799.500000 -3.370000 2
147297.266000 494799.406000 -3.393000 2
147297.312000 494799.719000 -3.477000 2
147297.406000 494799.688000 -3.403000 2
147297.609000 494799.688000 -3.441000 2
147297.469000 494799.375000 -3.409000 2
147297.984000 494799.563000 -3.499000 2
147297.625000 494799.125000 -3.429000 2
147297.984000 494799.531000 -3.381000 2
147297.781000 494799.500000 -3.301000 2
147297.906000 494799.438000 -3.131000 2
147297.891000 494799.375000 -3.006000 2
147297.781000 494799.219000 -2.872000 2
147297.797000 494799.219000 -2.752000 2
147297.922000 494799.250000 -2.040000 2
147297.000000 494799.688000 -2.442000 2
147297.094000 494799.438000 -2.229000 2
147297.766000 494799.281000 -2.083000 2
147297.766000 494799.281000 -2.001000 2
147297.094000 494799.281000 -1.731000 2
147297.484000 494799.094000 -1.568000 2
147296.422000 494799.719000 -0.551000 2
147296.812000 494799.125000 -0.317000 2
147296.594000 494799.656000 -0.746000 2
147296.953000 494799.125000 -0.645000 2
147296.906000 494799.313000 -0.597000 2
147296.281000 494799.000000 -0.901000 2
147296.172000 494798.781000 -0.802000 2
147296.078000 494798.594000 -0.566000 2
147295.953000 494798.750000 -0.625000 2
147304.891000 494807.250000 -3.598000 3
147305.781000 494807.250000 -3.323000 3
147306.687000 494807.438000 -3.379000 3
147307.594000 494807.625000 -3.104000 3
147308.484000 494807.969000 -2.824000 3
147308.359000 494807.813000 -1.883000 3
147307.781000 494807.375000 -1.201000 3
147308.375000 494806.813000 -1.519000 3
147309.234000 494806.688000 -2.002000 3
147309.125000 494807.156000 -2.703000 3
147309.516000 494807.813000 -3.344000 3
147309.531000 494808.375000 -3.426000 3
147309.375000 494808.031000 -3.506000 3
147309.156000 494806.844000 -2.735000 3
147308.187000 494806.813000 -2.549000 3
147309.422000 494806.813000 -2.654000 3
147309.031000 494806.188000 -2.421000 3
147309.266000 494806.688000 -2.659000 3
147309.219000 494806.469000 -2.173000 3
147309.328000 494806.594000 -1.987000 3
147308.984000 494806.313000 -0.964000 3
147309.328000 494806.938000 -0.520000 3
147309.437000 494807.813000 -0.065000 3
147309.203000 494807.969000 -1.024000 3
147308.953000 494808.906000 -0.815000 3
147308.937000 494809.875000 -1.012000 3
147309.734000 494809.688000 -1.569000 3
147309.406000 494808.938000 -2.065000 3
147308.703000 494808.906000 -2.442000 3
147308.187000 494809.031000 -2.143000 3
147307.391000 494808.531000 -2.181000 3
147307.125000 494808.781000 -3.096000 3
147307.875000 494808.656000 -3.609000 3
147308.359000 494808.625000 -3.619000 3
147308.094000 494808.625000 -3.660000 3
147306.859000 494809.500000 -3.599000 3
147306.453000 494809.750000 -3.628000 3
147306.687000 494809.594000 -3.635000 3
147306.953000 494809.469000 -3.592000 3
147306.437000 494808.625000 -3.522000 3
147307.125000 494809.406000 -3.630000 3
147306.547000 494808.656000 -3.545000 3
147306.562000 494808.875000 -3.568000 3
147307.328000 494809.125000 -3.647000 3
147306.687000 494808.938000 -3.564000 3
147307.328000 494809.156000 -3.599000 3
147307.734000 494808.688000 -3.264000 3
147307.594000 494808.781000 -3.520000 3
147306.984000 494809.125000 -3.606000 3
147307.203000 494809.094000 -3.618000 3
147306.859000 494808.875000 -3.554000 3
147307.391000 494808.906000 -3.537000 3
147307.203000 494808.875000 -3.511000 3
147307.203000 494808.906000 -3.475000 3
147307.078000 494808.844000 -3.470000 3
147306.719000 494809.156000 -2.468000 3
147306.406000 494809.844000 -2.180000 3
147307.016000 494809.938000 -1.394000 3
147306.219000 494810.063000 -0.851000 3
147306.359000 494809.250000 -1.084000 3
147306.531000 494809.281000 -0.141000 3
147307.359000 494809.719000 0.175000 3
147307.703000 494808.813000 -0.067000 3
147307.984000 494809.594000 -0.601000 3
147307.312000 494808.781000 0.831000 3
147306.766000 494809.375000 1.378000 3
147306.359000 494808.531000 1.386000 3
147306.516000 494808.219000 0.449000 3
147307.156000 494807.938000 0.214000 3
147307.172000 494807.875000 -0.514000 3
147305.875000 494808.438000 0.307000 3
147306.781000 494808.125000 0.031000 3
147306.531000 494807.969000 0.345000 3
147306.562000 494808.094000 0.565000 3
147306.656000 494808.031000 1.158000 3
147306.500000 494808.031000 1.084000 3
147306.453000 494808.156000 0.932000 3
147306.516000 494808.063000 1.196000 3
147306.312000 494808.781000 1.299000 3
147306.641000 494809.125000 1.536000 3
147306.734000 494808.094000 0.644000 3
147306.437000 494808.625000 1.019000 3
147306.969000 494808.031000 0.530000 3
147306.969000 494809.063000 1.438000 3
147307.094000 494809.313000 1.267000 3
147306.969000 494809.063000 1.373000 3
147306.719000 494808.469000 0.722000 3
147307.078000 494809.281000 1.189000 3
147306.859000 494809.000000 0.784000 3
147307.125000 494809.000000 1.246000 3
147307.297000 494807.969000 0.052000 3
147308.047000 494809.469000 -0.581000 3
147307.469000 494808.906000 -0.704000 3
147307.906000 494809.188000 -0.566000 3
147307.500000 494808.406000 0.311000 3
147307.375000 494808.750000 -0.475000 3
147307.406000 494808.469000 0.155000 3
147307.625000 494808.688000 0.246000 3
147307.562000 494808.750000 0.066000 3
147307.859000 494809.313000 -0.565000 3
147307.750000 494809.094000 -0.418000 3
147307.016000 494809.344000 0.940000 3
147307.359000 494808.813000 0.237000 3
147307.187000 494809.063000 0.741000 3
147307.672000 494808.969000 -0.131000 3
147307.844000 494809.125000 -0.036000 3
147307.547000 494810.156000 0.573000 3
147307.281000 494809.875000 0.678000 3
147307.687000 494810.094000 0.291000 3
147307.531000 494810.125000 0.408000 3
147307.375000 494810.031000 0.375000 3
147307.375000 494809.813000 0.488000 3
147307.422000 494809.531000 0.333000 3
147307.562000 494809.813000 0.294000 3
147306.219000 494808.719000 0.576000 3
147307.109000 494809.500000 0.566000 3
147307.266000 494809.188000 0.371000 3
147306.000000 494808.656000 0.176000 3
147306.281000 494808.594000 0.272000 3
147307.109000 494809.250000 0.452000 3
147306.781000 494809.313000 0.618000 3
147307.219000 494809.406000 0.164000 3
147306.484000 494809.250000 0.407000 3
147306.578000 494809.250000 0.384000 3
147307.203000 494808.875000 -1.066000 3
147306.203000 494809.000000 -0.375000 3
147306.891000 494809.344000 -0.589000 3
147306.328000 494809.875000 -0.820000 3
147306.250000 494810.156000 -1.122000 3
147307.000000 494809.594000 -0.638000 3
147307.453000 494809.875000 -1.963000 3
147306.437000 494810.063000 -1.096000 3
147307.187000 494809.844000 -1.472000 3
147306.625000 494809.750000 -1.330000 3
147307.234000 494809.906000 -1.943000 3
147306.719000 494809.938000 -1.650000 3
147306.375000 494810.313000 -2.033000 3
147306.047000 494809.906000 -1.929000 3
147306.312000 494810.094000 -2.096000 3
147306.250000 494810.000000 -2.105000 3
147306.578000 494809.156000 -1.753000 3
147306.687000 494809.344000 -1.925000 3
147306.766000 494809.469000 -2.238000 3
147307.250000 494809.406000 -2.266000 3
147307.328000 494808.844000 -2.992000 3
147307.547000 494808.750000 -2.988000 3
147306.875000 494809.063000 -2.460000 3
147306.766000 494808.844000 -2.245000 3
147307.203000 494809.000000 -2.618000 3
147307.062000 494809.000000 -2.470000 3
147306.812000 494808.469000 -2.321000 3
147306.953000 494808.781000 -2.323000 3
147306.937000 494808.469000 -2.384000 3
147307.094000 494808.781000 -2.436000 3
147307.250000 494808.781000 -2.546000 3
147307.094000 494808.813000 -2.364000 3
147307.141000 494808.563000 -2.370000 3
147307.484000 494808.313000 -2.136000 3
147307.422000 494809.531000 -2.146000 3
147307.656000 494808.594000 -2.742000 3
147307.594000 494808.531000 -2.258000 3
147307.500000 494808.750000 -2.373000 3
147309.000000 494809.094000 -2.345000 3
147309.578000 494808.625000 -2.220000 3
147309.031000 494808.875000 -2.116000 3
147309.125000 494808.844000 -2.216000 3
147309.172000 494809.188000 -2.151000 3
147309.281000 494809.219000 -2.051000 3
147309.687000 494810.344000 -1.609000 3
147309.766000 494810.281000 -1.608000 3
147309.594000 494809.406000 -1.640000 3
147308.016000 494810.063000 -0.759000 3
147308.187000 494809.781000 -0.505000 3
147308.125000 494810.281000 -0.948000 3
147309.312000 494810.625000 -1.309000 3
147309.672000 494810.125000 -1.352000 3
147308.109000 494809.781000 -0.885000 3
147309.641000 494810.313000 -1.061000 3
147309.266000 494810.563000 -1.311000 3
147309.125000 494810.531000 -1.427000 3
147308.219000 494809.969000 -1.104000 3
147308.266000 494809.844000 -1.095000 3
147309.531000 494809.844000 -1.333000 3
147309.531000 494810.125000 -0.826000 3
147309.312000 494810.375000 -1.225000 3
147309.437000 494810.188000 -1.282000 3
147308.375000 494810.094000 -1.188000 3
147309.172000 494810.313000 -1.307000 3
147309.156000 494810.344000 -1.128000 3
147309.016000 494810.344000 -1.215000 3
147309.281000 494809.844000 -1.313000 3
147309.187000 494810.094000 -1.227000 3
147308.859000 494810.031000 -1.240000 3
147309.047000 494810.063000 -1.195000 3
147309.000000 494810.031000 -1.173000 3
147309.078000 494809.906000 -0.982000 3
147309.375000 494809.781000 -0.849000 3
147309.625000 494809.000000 -0.147000 3
147309.531000 494808.844000 0.162000 3
147309.219000 494809.781000 -0.879000 3
147308.344000 494809.500000 -1.145000 3
147308.844000 494809.688000 -1.260000 3
147308.141000 494809.156000 -0.575000 3
147308.203000 494809.219000 -1.110000 3
147308.656000 494809.688000 -0.687000 3
147308.844000 494809.719000 -0.746000 3
147308.453000 494808.781000 -1.370000 3
147308.953000 494809.656000 -0.829000 3
147308.297000 494808.844000 -1.163000 3
147309.000000 494808.906000 -0.095000 3
147308.750000 494809.563000 -0.839000 3
147309.219000 494809.469000 -0.824000 3
147309.078000 494809.438000 -0.931000 3
147308.562000 494809.125000 -1.137000 3
147308.812000 494809.344000 -0.900000 3
147309.219000 494809.250000 -0.728000 3
147308.906000 494809.094000 -1.016000 3
147309.078000 494809.125000 -0.866000 3
147309.234000 494808.781000 -0.465000 3
147309.500000 494808.500000 -1.792000 3
147308.734000 494808.469000 -0.372000 3
147309.297000 494808.875000 -0.857000 3
147309.578000 494807.969000 -1.078000 3
147309.391000 494807.906000 -1.062000 3
147308.812000 494808.469000 -0.400000 3
147309.437000 494807.969000 -1.006000 3
147308.656000 494808.094000 -0.513000 3
147309.094000 494808.469000 -0.551000 3
147309.422000 494807.156000 0.525000 3
147309.062000 494807.438000 0.501000 3
147308.812000 494807.906000 -0.454000 3
147308.969000 494808.250000 -0.387000 3
147309.234000 494807.438000 0.453000 3
147309.062000 494807.688000 -1.034000 3
147308.672000 494807.594000 -0.516000 3
147309.281000 494807.781000 -0.143000 3
147309.328000 494807.594000 0.096000 3
147309.469000 494807.781000 -0.744000 3
147309.297000 494807.781000 -0.780000 3
147309.344000 494807.781000 -0.774000 3
147309.531000 494807.625000 -0.035000 3
147309.172000 494807.531000 -0.003000 3
147309.016000 494807.656000 -0.543000 3
147309.266000 494806.875000 -0.057000 3
147309.453000 494807.094000 -0.247000 3
147309.359000 494807.188000 -0.314000 3
147309.375000 494807.031000 -0.287000 3
147309.031000 494805.625000 -1.367000 3
147308.328000 494805.375000 -0.702000 3
147307.937000 494805.313000 -1.085000 3
147308.125000 494805.625000 -1.782000 3
147307.406000 494805.719000 -2.383000 3
147307.078000 494806.188000 -1.641000 3
147306.859000 494806.406000 -0.705000 3
147307.203000 494806.406000 0.162000 3
147306.937000 494806.813000 0.823000 3
147306.609000 494806.625000 0.963000 3
147306.562000 494806.781000 0.931000 3
147306.625000 494806.813000 0.294000 3
147306.891000 494806.125000 0.726000 3
147306.656000 494806.625000 0.371000 3
147307.109000 494805.906000 0.041000 3
147306.937000 494805.719000 -0.214000 3
147307.047000 494806.063000 -0.025000 3
147307.219000 494806.125000 -0.087000 3
147307.250000 494806.406000 -0.157000 3
147307.047000 494806.875000 -0.397000 3
147307.062000 494806.000000 -0.331000 3
147306.656000 494806.781000 -0.422000 3
147306.672000 494806.563000 -0.535000 3
147306.953000 494806.938000 -2.145000 3
147306.203000 494806.656000 -1.782000 3
147305.828000 494806.313000 -1.245000 3
147304.922000 494806.156000 -1.342000 3
147305.062000 494805.813000 -1.167000 3
147305.078000 494806.063000 -1.308000 3
147305.953000 494806.531000 -1.405000 3
147306.109000 494806.469000 -1.618000 3
147306.516000 494806.656000 -2.362000 3
147306.437000 494806.563000 -1.996000 3
147306.312000 494806.313000 -1.856000 3
147306.937000 494806.000000 -0.888000 3
147306.875000 494806.813000 -1.809000 3
147307.062000 494806.656000 -2.063000 3
147306.703000 494806.438000 -2.013000 3
147306.562000 494806.406000 -1.804000 3
147307.031000 494806.188000 -1.070000 3
147307.156000 494806.156000 -1.095000 3
147306.922000 494806.469000 -1.221000 3
147307.016000 494806.625000 -1.525000 3
147307.234000 494806.531000 -1.649000 3
147307.266000 494806.219000 -1.745000 3
147307.312000 494805.594000 -2.080000 3
147307.453000 494805.531000 -2.216000 3
147308.156000 494805.250000 -1.089000 3
147308.531000 494805.094000 -0.736000 3
147308.437000 494805.156000 -0.798000 3
147308.312000 494805.469000 -1.957000 3
147308.281000 494805.469000 -1.848000 3
147308.547000 494805.219000 -0.945000 3
147308.297000 494805.531000 -1.236000 3
147308.406000 494805.500000 -1.165000 3
147308.609000 494805.250000 -1.024000 3
147308.516000 494805.281000 -1.164000 3
147308.766000 494805.125000 -1.160000 3
147308.594000 494805.406000 -1.600000 3
147308.625000 494805.313000 -1.461000 3
147308.844000 494805.219000 -1.631000 3
147308.719000 494805.500000 -1.669000 3
147308.703000 494805.344000 -1.493000 3
147309.266000 494806.938000 -0.840000 3
147308.656000 494806.125000 -0.464000 3
147308.859000 494805.906000 -0.798000 3
147308.969000 494806.031000 -0.688000 3
147308.891000 494806.156000 -0.674000 3
147309.047000 494806.125000 -1.016000 3
147309.016000 494806.219000 -0.820000 3
147308.734000 494806.219000 -0.855000 3
147308.969000 494806.813000 -2.205000 3
147308.578000 494806.219000 -0.865000 3
147308.922000 494806.781000 -2.196000 3
147308.422000 494806.344000 -0.799000 3
147308.547000 494806.063000 -1.253000 3
147308.172000 494806.500000 -0.826000 3
147308.766000 494806.906000 -2.159000 3
147308.812000 494806.344000 -1.199000 3
147308.656000 494806.344000 -1.245000 3
147308.672000 494806.313000 -1.338000 3
147308.828000 494806.656000 -1.787000 3
147308.797000 494806.656000 -1.206000 3
147308.844000 494806.688000 -1.280000 3
147308.484000 494806.438000 -1.220000 3
147308.687000 494806.781000 -1.712000 3
147308.594000 494806.656000 -1.371000 3
147308.281000 494806.688000 -1.052000 3
147308.156000 494807.563000 -0.465000 3
147308.484000 494807.156000 -0.783000 3
147307.734000 494807.156000 -0.425000 3
147307.375000 494807.344000 -1.887000 3
147308.000000 494806.656000 -1.053000 3
147307.953000 494806.781000 -0.789000 3
147307.812000 494806.781000 -0.776000 3
147307.594000 494807.094000 -0.568000 3
147307.422000 494807.625000 -0.640000 3
147308.141000 494806.938000 -1.063000 3
147308.031000 494806.875000 -1.204000 3
147307.953000 494807.563000 -0.751000 3
147307.516000 494807.250000 -0.777000 3
147307.719000 494807.344000 -0.692000 3
147307.937000 494807.031000 -0.992000 3
147307.609000 494807.125000 -0.905000 3
147307.797000 494807.219000 -0.862000 3
147307.594000 494807.344000 -1.209000 3
147307.719000 494807.313000 -1.174000 3
147307.656000 494808.438000 -2.166000 3
147308.437000 494808.750000 -1.938000 3
147307.844000 494807.250000 -1.441000 3
147307.891000 494807.969000 -1.182000 3
147307.781000 494807.281000 -2.026000 3
147307.781000 494807.344000 -1.782000 3
147307.984000 494807.844000 -1.295000 3
147308.094000 494807.250000 -1.733000 3
147308.797000 494807.719000 -1.490000 3
147308.016000 494807.875000 -1.421000 3
147307.953000 494807.438000 -1.752000 3
147308.469000 494807.531000 -1.772000 3
147308.219000 494807.531000 -1.833000 3
147308.078000 494807.688000 -1.876000 3
147308.391000 494807.563000 -1.712000 3
147307.812000 494808.625000 -3.012000 3
147308.844000 494808.750000 -2.422000 3
147307.734000 494808.500000 -2.622000 3
147308.453000 494808.688000 -2.231000 3
147309.266000 494807.813000 -3.304000 3
147308.406000 494808.375000 -3.607000 3
147309.141000 494807.656000 -2.357000 3
147308.234000 494808.375000 -3.493000 3
147309.109000 494808.188000 -2.971000 3
147308.812000 494808.375000 -2.533000 3
147308.781000 494807.563000 -2.523000 3
147308.906000 494808.344000 -2.694000 3
147308.469000 494807.438000 -2.599000 3
147308.969000 494807.906000 -2.923000 3
147308.875000 494807.719000 -2.717000 3
147308.266000 494808.219000 -2.626000 3
147308.594000 494807.688000 -2.692000 3
147308.750000 494808.000000 -2.676000 3
147308.516000 494807.688000 -2.710000 3
147308.656000 494808.000000 -2.758000 3
147307.953000 494808.469000 -2.723000 3
147307.844000 494808.281000 -2.449000 3
147307.734000 494807.500000 -2.167000 3
147307.984000 494808.406000 -3.459000 3
147308.359000 494808.125000 -2.930000 3
147308.375000 494807.406000 -2.655000 3
