154781.547000 496997.344000 -2.223000 0
154780.938000 496996.625000 -2.330000 0
154780.500000 496996.188000 -2.507000 0
154780.969000 496996.719000 -2.089000 0
154780.953000 496996.688000 -1.270000 0
154781.109000 496997.344000 -0.533000 0
154780.984000 496996.813000 -0.085000 0
154781.328000 496996.406000 0.150000 0
154780.750000 496997.156000 -0.045000 0
154781.047000 496997.063000 -0.290000 0
154780.438000 496995.875000 -1.372000 0
154781.844000 496996.906000 -1.235000 0
154781.328000 496998.219000 -2.240000 0
154780.906000 496997.875000 -2.010000 0
154781.938000 496997.313000 -2.185000 0
154781.563000 496997.344000 -1.306000 0
154781.641000 496997.750000 -2.138000 0
154781.109000 496998.656000 -0.924000 0
154780.266000 496998.531000 -0.538000 0
154779.484000 496998.375000 -0.143000 0
154778.891000 496997.656000 -0.366000 0
154779.594000 496997.531000 -0.286000 0
154778.969000 496997.969000 -0.524000 0
154779.797000 496998.438000 0.106000 0
154779.531000 496998.625000 -0.489000 0
154779.906000 496998.906000 -0.585000 0
154780.188000 496998.219000 -0.354000 0
154780.313000 496998.781000 -1.765000 0
154780.625000 496998.469000 -1.460000 0
154781.172000 496998.938000 -1.180000 0
154780.813000 496999.219000 -1.369000 0
154780.469000 496999.406000 -1.131000 0
154779.953000 496999.094000 -1.851000 0
154779.234000 496999.063000 -2.518000 0
154778.688000 496998.375000 -2.847000 0
154778.891000 496997.625000 -3.339000 0
154778.359000 496997.031000 -3.430000 0
154778.625000 496996.531000 -3.194000 0
154778.094000 496995.906000 -3.416000 0
154777.953000 496995.375000 -2.982000 0
154778.016000 496995.625000 -3.350000 0
154778.422000 496995.719000 -3.311000 0
154779.047000 496996.656000 -2.650000 0
154778.297000 496996.750000 -3.279000 0
154778.734000 496997.000000 -2.944000 0
154778.453000 496997.406000 -3.379000 0
154778.797000 496997.281000 -3.254000 0
154778.234000 496998.281000 -2.208000 0
154778.234000 496998.219000 -1.302000 0
154777.891000 496998.375000 -1.761000 0
154777.938000 496998.563000 -2.176000 0
154777.656000 496999.125000 -2.668000 0
154777.969000 496998.688000 -2.783000 0
154778.250000 496998.344000 -2.945000 0
154778.594000 496997.969000 -2.960000 0
154779.438000 496998.219000 -2.497000 0
154778.453000 496999.156000 -2.759000 0
154778.797000 496998.813000 -2.703000 0
154780.563000 496999.844000 -1.984000 0
154779.391000 496999.719000 -0.830000 0
154778.375000 497000.344000 -1.458000 0
154778.984000 496999.594000 -1.779000 0
154778.266000 496999.906000 -1.679000 0
154778.641000 496999.938000 -1.702000 0
154779.281000 496999.281000 -0.959000 0
154779.250000 496999.125000 -0.463000 0
154778.203000 496999.688000 -1.330000 0
154778.516000 496999.438000 -1.078000 0
154778.172000 496999.531000 -0.644000 0
154778.094000 496999.156000 -0.648000 0
154778.422000 496999.000000 -0.364000 0
154778.734000 496998.531000 0.321000 0
154778.641000 496998.156000 0.224000 0
154777.266000 496997.469000 0.594000 0
154778.109000 496997.750000 0.311000 0
154777.656000 496997.406000 0.535000 0
154776.297000 496998.094000 0.313000 0
154776.531000 496997.938000 0.282000 0
154776.984000 496997.906000 0.146000 0
154777.313000 496999.219000 -0.340000 0
154776.750000 496998.875000 -0.243000 0
154776.641000 496998.406000 -1.461000 0
154775.641000 496998.906000 -1.562000 0
154774.906000 496999.156000 -1.734000 0
154775.344000 496999.531000 -1.766000 0
154775.266000 496999.219000 -1.571000 0
154775.188000 496998.906000 -1.450000 0
154775.719000 496999.250000 -1.694000 0
154775.484000 496998.281000 -1.297000 0
154776.016000 496998.688000 -1.118000 0
154776.344000 496998.313000 -0.953000 0
154776.516000 496997.875000 -0.909000 0
154776.266000 496998.000000 -0.817000 0
154775.828000 496997.938000 -1.121000 0
154776.094000 496997.250000 -0.882000 0
154775.797000 496997.813000 -0.534000 0
154774.969000 496996.156000 -0.164000 0
154774.531000 496996.156000 -0.999000 0
154774.891000 496995.844000 -0.970000 0
154774.266000 496995.094000 -0.896000 0
154774.594000 496994.563000 -0.425000 0
154774.828000 496993.781000 -0.309000 0
154774.078000 496994.281000 -0.115000 0
154774.563000 496994.438000 0.053000 0
154774.141000 496994.531000 -0.382000 0
154774.250000 496994.969000 -0.189000 0
154773.859000 496994.813000 -0.421000 0
154774.625000 496994.719000 -1.025000 0
154775.641000 496995.375000 -0.879000 0
154775.984000 496995.688000 -0.722000 0
154775.391000 496996.125000 -0.880000 0
154775.328000 496995.844000 -0.673000 0
154774.484000 496995.938000 -0.547000 0
154775.234000 496995.469000 0.216000 0
154775.500000 496994.813000 0.561000 0
154775.406000 496994.406000 1.443000 0
154775.000000 496994.500000 1.433000 0
154775.656000 496994.281000 1.472000 0
154775.984000 496993.750000 0.888000 0
154775.813000 496994.938000 1.093000 0
154774.875000 496995.719000 0.538000 0
154775.094000 496994.844000 1.366000 0
154774.781000 496995.375000 0.629000 0
154775.141000 496995.063000 0.973000 0
154776.500000 496995.844000 0.620000 0
154775.938000 496995.469000 1.561000 0
154775.453000 496996.375000 0.705000 0
154775.875000 496996.313000 0.585000 0
154776.719000 496996.813000 1.184000 0
154776.094000 496996.094000 1.176000 0
154777.094000 496996.781000 1.648000 0
154777.016000 496996.406000 1.649000 0
154776.422000 496995.531000 1.762000 0
154776.813000 496995.594000 1.463000 0
154777.234000 496995.625000 1.556000 0
154776.125000 496994.344000 1.517000 0
154776.219000 496994.688000 1.456000 0
154776.641000 496994.875000 1.487000 0
154776.500000 496994.281000 1.031000 0
154777.438000 496994.938000 1.510000 0
154778.188000 496994.750000 1.707000 0
154777.859000 496994.906000 1.489000 0
154778.125000 496994.469000 1.994000 0
154777.344000 496994.563000 1.556000 0
154777.766000 496994.531000 1.519000 0
154776.438000 496994.031000 1.397000 0
154777.266000 496994.219000 1.644000 0
154776.797000 496993.813000 1.601000 0
154777.141000 496993.719000 1.259000 0
154776.344000 496993.656000 1.341000 0
154776.234000 496993.219000 1.227000 0
154776.672000 496993.281000 1.203000 0
154776.844000 496992.500000 0.993000 0
154777.266000 496992.500000 0.966000 0
154777.625000 496992.375000 1.360000 0
154777.688000 496992.625000 1.118000 0
154778.313000 496992.250000 1.420000 0
154779.031000 496993.469000 0.600000 0
154779.141000 496993.875000 0.709000 0
154779.375000 496993.250000 1.315000 0
154779.953000 496993.875000 0.157000 0
154779.953000 496993.875000 1.077000 0
154779.547000 496992.188000 0.476000 0
154779.203000 496992.594000 -0.327000 0
154779.828000 496992.031000 -0.782000 0
154780.094000 496991.313000 -0.387000 0
154779.313000 496991.219000 -0.079000 0
154780.609000 496991.781000 -0.119000 0
154781.188000 496992.344000 -0.626000 0
154781.063000 496991.813000 -0.128000 0
154779.641000 496991.250000 -0.053000 0
154780.516000 496991.438000 -0.051000 0
154780.031000 496991.031000 -0.232000 0
154779.578000 496992.313000 -0.992000 0
154780.219000 496991.844000 -0.114000 0
154779.891000 496992.281000 0.679000 0
154779.641000 496992.594000 0.595000 0
154781.297000 496992.813000 -0.522000 0
154780.797000 496992.563000 -0.015000 0
154780.438000 496992.719000 0.295000 0
154779.641000 496992.625000 -1.272000 0
154780.031000 496992.813000 -0.748000 0
154780.781000 496994.156000 -1.774000 0
154780.031000 496994.250000 -1.718000 0
154779.516000 496993.875000 -1.736000 0
154779.313000 496994.625000 -2.098000 0
154777.953000 496993.750000 -0.754000 0
154778.063000 496994.250000 -1.434000 0
154777.125000 496995.188000 -1.390000 0
154777.375000 496994.688000 -1.853000 0
154778.859000 496994.563000 -2.203000 0
154777.891000 496995.094000 -2.677000 0
154778.125000 496994.469000 -1.839000 0
154778.578000 496994.656000 -1.940000 0
154777.859000 496994.969000 -2.026000 0
154778.188000 496994.750000 -2.091000 0
154778.641000 496994.969000 -2.145000 0
154778.953000 496996.188000 -2.790000 0
154778.359000 496995.406000 -2.261000 0
154778.406000 496995.656000 -2.554000 0
154778.922000 496996.063000 -2.237000 0
154779.938000 496995.656000 -1.874000 0
154778.953000 496994.969000 -2.088000 0
154779.156000 496995.781000 -2.013000 0
154779.906000 496995.500000 -1.347000 0
154779.531000 496995.563000 -0.714000 0
154779.500000 496995.406000 -0.112000 0
154778.875000 496995.844000 0.113000 0
154779.516000 496997.250000 0.849000 0
154779.875000 496996.938000 0.003000 0
154780.578000 496996.438000 0.074000 0
154779.766000 496996.469000 0.743000 0
154780.188000 496996.656000 0.622000 0
154780.422000 496995.813000 0.387000 0
154780.781000 496995.906000 0.493000 0
154780.750000 496994.000000 0.674000 0
154779.859000 496995.281000 0.813000 0
154780.297000 496995.313000 0.999000 0
154780.188000 496994.875000 0.796000 0
154781.219000 496994.344000 -0.266000 0
154780.875000 496994.563000 0.087000 0
154781.047000 496995.250000 0.043000 0
154781.141000 496995.625000 0.027000 0
154780.875000 496996.313000 -1.347000 0
154781.766000 496996.594000 -1.193000 0
154781.125000 496995.594000 -0.955000 0
154781.297000 496996.313000 -1.118000 0
154781.703000 496996.313000 -0.976000 0
154782.078000 496996.000000 -0.950000 0
154782.031000 496994.406000 -0.467000 0
154781.891000 496995.219000 -1.119000 0
154782.219000 496995.188000 -1.314000 0
154782.453000 496994.594000 -0.945000 0
154782.188000 496995.063000 -0.655000 0
154764.578000 496999.656000 1.028000 1
154764.063000 496999.125000 1.600000 1
154763.406000 496999.625000 1.214000 1
154762.531000 496999.188000 1.306000 1
154762.891000 496999.031000 2.168000 1
154763.750000 496999.219000 2.605000 1
154763.250000 496998.938000 3.201000 1
154763.016000 496999.500000 3.344000 1
154762.516000 497000.250000 3.094000 1
154761.609000 496999.969000 3.405000 1
154761.828000 497000.844000 3.734000 1
154761.922000 497001.250000 2.897000 1
154761.359000 497001.938000 3.108000 1
154760.922000 497002.000000 2.213000 1
154760.031000 497001.938000 2.502000 1
154759.797000 497002.438000 1.958000 1
154758.938000 497002.438000 2.148000 1
154758.563000 497002.844000 2.650000 1
154758.719000 497003.438000 3.209000 1
154759.594000 497003.469000 2.753000 1
154759.188000 497003.500000 2.031000 1
154759.656000 497003.750000 1.567000 1
154760.234000 497004.250000 0.950000 1
154760.969000 497003.656000 0.705000 1
154761.625000 497003.063000 0.242000 1
154761.844000 497002.719000 0.632000 1
154761.453000 497002.344000 1.318000 1
154761.109000 497002.750000 1.396000 1
154761.969000 497003.250000 0.078000 1
154761.922000 497003.063000 0.510000 1
154761.547000 497002.781000 0.396000 1
154761.203000 497003.156000 1.391000 1
154761.469000 497004.250000 0.424000 1
154761.219000 497004.750000 -0.390000 1
154762.125000 497005.125000 -0.253000 1
154761.875000 497005.969000 0.052000 1
154760.984000 497005.875000 0.450000 1
154760.844000 497006.750000 0.858000 1
154761.047000 497007.656000 1.209000 1
154762.000000 497007.938000 1.178000 1
154762.641000 497007.250000 1.461000 1
154762.438000 497006.438000 1.234000 1
154763.047000 497007.688000 0.978000 1
154763.906000 497007.906000 0.682000 1
154764.531000 497008.625000 0.917000 1
154765.250000 497008.781000 0.535000 1
154765.484000 497008.188000 0.391000 1
154765.391000 497007.844000 1.265000 1
154764.641000 497007.875000 1.759000 1
154764.484000 497007.219000 2.061000 1
154764.484000 497007.188000 2.978000 1
154763.953000 497008.031000 2.965000 1
154763.297000 497008.750000 2.836000 1
154763.172000 497008.219000 3.338000 1
154762.703000 497007.531000 3.128000 1
154761.953000 497007.781000 2.660000 1
154761.359000 497007.438000 2.493000 1
154761.078000 497007.750000 3.364000 1
154760.484000 497007.125000 3.564000 1
154761.219000 497006.844000 3.837000 1
154761.063000 497006.188000 3.109000 1
154760.531000 497005.438000 3.134000 1
154759.781000 497005.906000 3.467000 1
154759.875000 497006.313000 3.488000 1
154760.781000 497005.063000 3.927000 1
154761.469000 497005.719000 4.066000 1
154761.734000 497005.344000 4.151000 1
154762.391000 497004.969000 4.462000 1
154762.125000 497005.094000 5.417000 1
154762.859000 497005.094000 6.064000 1
154763.063000 497004.313000 6.603000 1
154762.578000 497003.938000 5.862000 1
154762.031000 497003.500000 6.322000 1
154761.359000 497003.719000 6.619000 1
154760.547000 497004.000000 6.783000 1
154759.891000 497004.625000 6.738000 1
154759.672000 497003.750000 6.310000 1
154759.969000 497003.125000 6.608000 1
154760.141000 497002.375000 6.421000 1
154760.750000 497002.781000 5.802000 1
154760.844000 497003.188000 4.920000 1
154760.063000 497003.563000 4.820000 1
154759.813000 497004.344000 4.995000 1
154760.578000 497004.188000 5.446000 1
154759.938000 497003.000000 4.283000 1
154760.250000 497004.313000 4.804000 1
154760.531000 497003.969000 3.949000 1
154760.266000 497004.344000 3.129000 1
154759.422000 497004.469000 2.676000 1
154759.156000 497005.281000 2.228000 1
154759.500000 497004.813000 1.606000 1
154758.359000 497005.250000 1.967000 1
154758.828000 497005.656000 1.220000 1
154759.234000 497005.625000 0.312000 1
154759.031000 497006.531000 0.608000 1
154759.031000 497006.500000 -0.372000 1
154760.047000 497005.344000 -0.046000 1
154759.547000 497005.000000 -0.791000 1
154758.813000 497005.594000 -0.945000 1
154758.047000 497005.969000 -0.459000 1
154757.906000 497005.375000 -0.082000 1
154757.828000 497005.031000 0.827000 1
154758.594000 497004.688000 0.661000 1
154758.047000 497003.969000 0.550000 1
154758.141000 497004.375000 -0.327000 1
154758.484000 497004.250000 -0.459000 1
154759.297000 497003.938000 -0.589000 1
154759.609000 497003.563000 0.073000 1
154759.156000 497003.375000 -0.123000 1
154758.406000 497003.906000 -0.331000 1
154757.609000 497004.094000 1.236000 1
154758.344000 497003.656000 -0.050000 1
154758.281000 497003.406000 0.217000 1
154757.938000 497003.531000 0.347000 1
154758.938000 497004.406000 0.036000 1
154758.844000 497003.969000 0.717000 1
154757.719000 497004.531000 1.475000 1
154758.141000 497004.344000 0.644000 1
154757.344000 497004.688000 0.722000 1
154757.734000 497004.656000 0.896000 1
154757.906000 497005.375000 0.802000 1
154757.969000 497005.625000 -0.397000 1
154758.359000 497005.281000 -0.740000 1
154758.656000 497004.969000 -0.501000 1
154758.734000 497005.250000 -0.722000 1
154759.000000 497004.625000 -0.394000 1
154759.422000 497004.438000 -0.320000 1
154759.109000 497005.094000 -1.009000 1
154759.859000 497006.250000 0.506000 1
154759.359000 497006.156000 -0.334000 1
154759.688000 497005.563000 0.591000 1
154759.297000 497005.875000 -0.054000 1
154758.266000 497004.906000 1.026000 1
154758.953000 497006.188000 0.590000 1
154758.328000 497005.188000 0.802000 1
154759.188000 497005.438000 0.798000 1
154758.688000 497005.063000 1.579000 1
154758.641000 497004.875000 2.137000 1
154758.484000 497004.219000 2.273000 1
154758.047000 497003.969000 2.459000 1
154758.797000 497005.531000 1.781000 1
154759.203000 497005.500000 1.830000 1
154758.594000 497004.656000 2.497000 1
154759.000000 497004.656000 2.444000 1
154758.938000 497004.344000 2.703000 1
154761.078000 497004.094000 2.749000 1
154761.281000 497003.469000 3.209000 1
154761.156000 497002.938000 3.667000 1
154761.484000 497002.438000 4.423000 1
154761.297000 497001.719000 4.329000 1
154760.453000 497001.563000 4.590000 1
154760.813000 497001.500000 4.638000 1
154761.234000 497001.438000 4.640000 1
154760.938000 497002.031000 4.183000 1
154762.172000 497002.250000 4.527000 1
154762.172000 497002.250000 5.485000 1
154761.359000 497001.906000 5.899000 1
154762.656000 497002.688000 6.161000 1
154763.484000 497003.031000 6.488000 1
154763.625000 497003.625000 7.073000 1
154762.969000 497003.969000 7.579000 1
154762.313000 497004.625000 7.405000 1
154762.219000 497004.250000 8.300000 1
154761.641000 497004.906000 6.860000 1
154761.438000 497005.563000 6.512000 1
154762.266000 497005.688000 6.955000 1
154763.000000 497005.688000 7.560000 1
154763.203000 497004.906000 8.132000 1
154763.969000 497005.063000 7.920000 1
154764.281000 497004.688000 7.185000 1
154764.609000 497004.563000 6.267000 1
154764.000000 497005.156000 6.250000 1
154764.547000 497005.844000 6.338000 1
154765.406000 497006.000000 6.644000 1
154765.172000 497006.906000 6.482000 1
154765.594000 497006.813000 5.807000 1
154766.219000 497006.406000 5.168000 1
154766.922000 497006.031000 5.765000 1
154767.063000 497005.094000 5.475000 1
154766.328000 497005.063000 5.882000 1
154765.625000 497005.531000 5.564000 1
154765.203000 497005.188000 5.591000 1
154765.359000 497004.438000 5.549000 1
154765.563000 497003.719000 5.657000 1
154765.844000 497003.000000 5.355000 1
154765.969000 497002.063000 5.153000 1
154766.594000 497001.500000 4.821000 1
154767.422000 497001.313000 4.539000 1
154767.156000 497002.188000 4.789000 1
154766.875000 497002.625000 4.972000 1
154767.266000 497002.563000 4.857000 1
154766.484000 497001.000000 5.474000 1
154765.688000 497000.875000 5.826000 1
154765.063000 497001.625000 6.042000 1
154765.266000 497002.438000 6.131000 1
154764.688000 497003.063000 5.807000 1
154763.922000 497003.219000 5.334000 1
154763.922000 497003.281000 4.530000 1
154764.719000 497003.219000 4.287000 1
154765.234000 497003.969000 4.326000 1
154765.719000 497004.375000 3.704000 1
154765.172000 497005.063000 3.236000 1
154766.000000 497005.531000 2.939000 1
154766.344000 497005.094000 2.200000 1
154766.938000 497004.594000 2.200000 1
154766.719000 497003.719000 1.943000 1
154767.234000 497004.156000 1.217000 1
154766.656000 497004.969000 1.226000 1
154767.188000 497005.656000 1.147000 1
154766.781000 497005.469000 0.578000 1
154767.047000 497005.094000 0.659000 1
154766.750000 497005.344000 1.197000 1
154767.750000 497004.656000 0.805000 1
154766.984000 497004.844000 0.961000 1
154767.656000 497004.281000 0.742000 1
154767.531000 497003.688000 1.154000 1
154766.813000 497004.094000 0.932000 1
154766.078000 497004.031000 0.314000 1
154766.516000 497004.344000 -0.346000 1
154767.000000 497004.906000 -0.804000 1
154767.234000 497004.156000 -0.656000 1
154766.594000 497004.719000 -0.414000 1
154765.578000 497003.781000 0.256000 1
154764.938000 497004.156000 0.019000 1
154764.703000 497004.938000 -0.448000 1
154763.938000 497004.969000 -0.013000 1
154764.453000 497005.469000 0.664000 1
154763.750000 497005.375000 1.092000 1
154763.547000 497004.563000 1.046000 1
154764.047000 497003.813000 1.129000 1
154764.672000 497003.063000 0.993000 1
154765.250000 497002.438000 1.462000 1
154765.938000 497002.000000 1.182000 1
154766.719000 497002.031000 0.568000 1
154766.516000 497002.906000 0.772000 1
154766.219000 497003.125000 1.230000 1
154765.734000 497002.625000 0.554000 1
154766.484000 497002.719000 1.284000 1
154766.375000 497002.313000 2.056000 1
154766.609000 497001.563000 2.309000 1
154765.953000 497002.031000 2.266000 1
154765.266000 497002.531000 2.632000 1
154764.500000 497002.344000 2.954000 1
154764.266000 497003.156000 2.676000 1
154763.500000 497003.156000 3.108000 1
154763.328000 497003.625000 2.350000 1
154762.469000 497003.563000 2.089000 1
154762.578000 497003.969000 1.237000 1
154762.609000 497004.094000 0.618000 1
154762.641000 497004.219000 0.016000 1
154763.047000 497004.313000 -0.861000 1
154763.266000 497003.406000 -1.033000 1
154763.266000 497003.344000 -0.173000 1
154763.391000 497002.750000 -0.841000 1
154764.172000 497002.781000 -1.191000 1
154762.844000 497003.500000 -1.083000 1
154763.766000 497004.281000 -0.758000 1
154762.719000 497004.594000 -0.945000 1
154762.078000 497004.969000 -1.528000 1
154762.734000 497004.625000 -1.798000 1
154762.828000 497005.063000 -1.583000 1
154763.016000 497005.844000 -1.441000 1
154762.688000 497006.219000 -0.872000 1
154763.094000 497006.156000 -1.487000 1
154763.109000 497004.594000 -1.137000 1
154763.422000 497004.063000 -0.241000 1
154762.672000 497004.344000 -0.590000 1
154762.266000 497004.500000 1.271000 1
154761.672000 497005.125000 1.656000 1
154761.828000 497005.719000 2.229000 1
154762.375000 497004.969000 2.458000 1
154762.734000 497004.594000 2.840000 1
154763.219000 497005.000000 3.579000 1
154763.016000 497005.781000 3.986000 1
154762.688000 497006.219000 4.809000 1
154762.500000 497006.625000 5.625000 1
154763.313000 497006.938000 6.076000 1
154762.594000 497007.000000 6.573000 1
154761.750000 497006.875000 7.039000 1
154761.875000 497007.375000 6.345000 1
154762.141000 497007.031000 6.525000 1
154763.063000 497007.750000 5.878000 1
154763.563000 497008.000000 6.006000 1
154762.797000 497006.625000 6.702000 1
154763.641000 497006.719000 7.099000 1
154763.531000 497006.313000 6.955000 1
154762.719000 497007.563000 6.006000 1
154763.469000 497007.625000 5.901000 1
154763.766000 497007.250000 5.679000 1
154762.984000 497007.438000 5.950000 1
154763.344000 497007.094000 5.492000 1
154762.031000 497006.563000 6.337000 1
154762.203000 497007.281000 5.329000 1
154762.172000 497007.125000 5.819000 1
154762.859000 497006.906000 5.584000 1
154762.578000 497007.000000 5.531000 1
154762.406000 497006.281000 5.652000 1
154763.500000 497006.188000 4.869000 1
154764.063000 497006.625000 4.304000 1
154764.516000 497005.750000 4.263000 1
154764.984000 497006.125000 3.511000 1
154765.813000 497006.375000 3.973000 1
154765.219000 497007.125000 4.165000 1
154764.984000 497007.688000 4.345000 1
154764.891000 497007.250000 4.236000 1
154765.172000 497006.875000 4.467000 1
154766.016000 497007.156000 4.164000 1
154766.266000 497006.594000 3.723000 1
154766.953000 497006.156000 3.322000 1
154767.422000 497006.594000 2.639000 1
154767.047000 497006.531000 2.381000 1
154767.750000 497006.313000 2.928000 1
154767.609000 497005.719000 3.335000 1
154767.156000 497005.500000 3.539000 1
154767.375000 497006.406000 3.099000 1
154767.000000 497006.375000 2.893000 1
154767.219000 497005.781000 3.398000 1
154767.297000 497006.063000 3.160000 1
154765.734000 497006.000000 4.004000 1
154765.484000 497006.406000 2.968000 1
154765.563000 497006.688000 2.761000 1
154765.359000 497007.656000 2.772000 1
154765.797000 497007.688000 2.595000 1
154765.438000 497008.000000 2.703000 1
154765.328000 497005.719000 4.046000 1
154764.094000 497005.594000 3.649000 1
154764.281000 497004.781000 3.620000 1
154763.797000 497004.344000 4.207000 1
154763.797000 497004.344000 5.114000 1
154763.516000 497004.375000 4.330000 1
154764.281000 497004.750000 4.458000 1
154764.563000 497005.906000 3.692000 1
154764.188000 497006.000000 3.597000 1
154764.531000 497007.375000 4.438000 1
154763.797000 497007.375000 4.190000 1
154763.953000 497008.063000 3.988000 1
154764.781000 497006.813000 4.131000 1
154764.734000 497006.625000 4.571000 1
154764.438000 497006.969000 4.355000 1
154764.375000 497006.781000 4.660000 1
154763.125000 497006.250000 5.187000 1
154763.906000 497006.000000 3.763000 1
154762.375000 497006.156000 4.438000 1
154762.422000 497006.344000 3.910000 1
154763.234000 497006.719000 3.569000 1
154763.406000 497005.750000 4.690000 1
154762.734000 497006.375000 4.262000 1
154763.844000 497004.594000 3.879000 1
154763.594000 497004.688000 4.213000 1
154763.094000 497004.500000 3.313000 1
154762.031000 497004.719000 2.627000 1
154761.922000 497004.313000 3.406000 1
154762.375000 497006.156000 2.459000 1
154763.203000 497006.531000 2.258000 1
154763.984000 497006.344000 1.782000 1
154764.203000 497006.063000 1.960000 1
154763.625000 497006.688000 2.349000 1
154763.516000 497006.250000 2.239000 1
154761.984000 497006.406000 2.222000 1
154761.922000 497006.094000 2.297000 1
154762.094000 497005.000000 2.369000 1
154762.156000 497005.281000 2.182000 1
154762.406000 497005.094000 1.919000 1
154762.359000 497003.063000 2.774000 1
154762.563000 497002.281000 2.280000 1
154762.969000 497002.156000 1.418000 1
154763.469000 497001.375000 1.652000 1
154763.969000 497001.906000 2.215000 1
154763.859000 497001.469000 3.061000 1
154764.641000 497001.500000 3.651000 1
154764.156000 497000.906000 4.058000 1
154764.172000 497000.938000 5.033000 1
154763.344000 497000.875000 4.999000 1
154763.656000 497000.594000 5.540000 1
154764.156000 497000.844000 5.785000 1
154764.031000 497000.344000 5.469000 1
154763.734000 497000.938000 5.524000 1
154764.594000 497001.313000 5.136000 1
154763.781000 497001.125000 5.025000 1
154764.375000 497000.406000 4.820000 1
154764.188000 496999.594000 4.497000 1
154765.109000 497000.000000 5.075000 1
154765.141000 497000.156000 4.571000 1
154765.250000 497000.594000 3.800000 1
154764.578000 496999.625000 4.633000 1
154764.641000 496999.875000 4.341000 1
154763.938000 496999.969000 4.452000 1
154764.734000 497000.313000 4.481000 1
154764.844000 497000.688000 4.494000 1
154764.016000 497000.313000 4.434000 1
154764.453000 497000.688000 4.511000 1
154764.281000 497001.375000 4.289000 1
154764.922000 497001.031000 3.590000 1
154765.016000 497001.438000 3.563000 1
154763.734000 497000.938000 2.595000 1
154763.359000 497000.969000 2.435000 1
154762.766000 497001.313000 2.062000 1
154764.203000 497001.094000 1.761000 1
154763.828000 497001.313000 1.748000 1
154763.563000 497001.781000 1.684000 1
154763.172000 497001.813000 1.493000 1
154762.922000 497001.938000 1.717000 1
154762.859000 497001.656000 2.011000 1
154762.469000 497001.906000 2.320000 1
154762.172000 497002.281000 2.598000 1
154761.844000 497002.719000 2.595000 1
154762.938000 497003.875000 1.750000 1
154763.500000 497004.344000 2.351000 1
154763.375000 497003.813000 1.988000 1
154763.406000 497002.750000 3.816000 1
154763.281000 497002.250000 4.487000 1
154763.688000 497002.281000 4.804000 1
154763.250000 497002.094000 4.929000 1
154763.359000 497003.719000 3.555000 1
154763.453000 497002.906000 3.392000 1
154763.625000 497003.656000 2.380000 1
154763.563000 497003.375000 2.679000 1
154764.328000 497003.375000 2.227000 1
154764.891000 497003.969000 2.454000 1
154765.125000 497003.500000 3.187000 1
154765.844000 497003.063000 3.614000 1
154765.453000 497003.250000 3.552000 1
154764.922000 497004.063000 1.665000 1
154765.578000 497003.813000 2.232000 1
154765.219000 497003.906000 2.362000 1
154765.125000 497003.500000 2.130000 1
154763.922000 497003.281000 2.653000 1
154764.063000 497002.281000 2.253000 1
154764.703000 497001.781000 3.422000 1
154764.672000 497003.000000 2.778000 1
154764.578000 497002.656000 2.838000 1
154765.422000 497003.156000 2.368000 1
154766.047000 497002.406000 2.268000 1
154766.844000 497002.531000 1.812000 1
154765.750000 497001.156000 0.992000 1
154765.906000 497000.344000 0.862000 1
154765.234000 497000.563000 0.949000 1
154765.563000 497000.438000 0.964000 1
154766.078000 497002.563000 0.629000 1
154765.516000 497001.719000 1.082000 1
154766.078000 497002.531000 1.626000 1
154765.594000 497002.063000 1.032000 1
154765.688000 497002.438000 1.103000 1
154765.656000 497002.250000 1.549000 1
154765.266000 497002.469000 0.643000 1
154764.891000 497002.531000 0.718000 1
154764.563000 497002.625000 0.778000 1
154763.688000 497003.938000 0.276000 1
154763.953000 497003.406000 1.964000 1
154763.625000 497003.656000 0.532000 1
154764.453000 497003.906000 1.710000 1
154764.016000 497003.625000 1.640000 1
154762.984000 497004.063000 1.242000 1
154764.125000 497004.125000 1.023000 1
154764.188000 497004.375000 0.773000 1
154763.672000 497005.094000 1.399000 1
154763.828000 497005.719000 1.094000 1
154763.422000 497005.844000 0.255000 1
154763.250000 497006.750000 0.011000 1
154764.125000 497006.938000 0.394000 1
154764.719000 497006.594000 -0.243000 1
154764.141000 497005.844000 -0.517000 1
154765.031000 497006.313000 0.179000 1
154764.703000 497006.500000 0.424000 1
154764.281000 497006.406000 -0.038000 1
154764.469000 497007.156000 -0.042000 1
154763.688000 497007.000000 0.314000 1
154764.000000 497006.406000 0.011000 1
154763.594000 497006.563000 0.153000 1
154763.906000 497006.000000 -0.114000 1
154764.313000 497004.875000 1.115000 1
154764.406000 497005.313000 1.197000 1
154763.500000 497004.344000 -0.487000 1
154763.734000 497004.125000 -0.152000 1
154763.328000 497005.469000 0.278000 1
154763.813000 497005.625000 -0.074000 1
154763.594000 497004.750000 -0.521000 1
154763.672000 497005.094000 -0.531000 1
154764.000000 497005.250000 -0.121000 1
154764.406000 497005.313000 -0.762000 1
154764.516000 497004.188000 -0.463000 1
154765.641000 497004.031000 0.003000 1
154766.141000 497004.313000 0.189000 1
154766.469000 497004.156000 0.061000 1
154766.594000 497003.219000 0.677000 1
154766.281000 497003.375000 0.926000 1
154767.641000 497004.188000 1.473000 1
154766.719000 497003.719000 0.974000 1
154767.469000 497003.500000 1.552000 1
154767.172000 497003.875000 1.505000 1
154767.359000 497004.656000 1.513000 1
154766.828000 497004.125000 2.030000 1
154767.344000 497004.625000 2.386000 1
154765.875000 497005.031000 1.608000 1
154765.813000 497004.781000 1.905000 1
154766.563000 497004.563000 2.009000 1
154766.625000 497004.813000 1.753000 1
154766.375000 497005.250000 1.670000 1
154766.234000 497004.656000 1.950000 1
154766.016000 497005.594000 2.050000 1
154766.578000 497006.125000 2.798000 1
154765.422000 497006.094000 3.090000 1
154766.375000 497005.250000 3.463000 1
154766.484000 497005.719000 2.871000 1
154765.266000 497005.500000 2.479000 1
154764.875000 497005.688000 3.352000 1
154765.516000 497005.125000 3.523000 1
154765.109000 497004.875000 3.699000 1
154765.422000 497004.750000 3.562000 1
154765.078000 497004.719000 4.329000 1
154765.281000 497004.125000 3.790000 1
154765.375000 497002.969000 3.761000 1
154765.313000 497002.688000 3.957000 1
154764.531000 497002.469000 4.284000 1
154765.078000 497003.344000 3.705000 1
154765.016000 497003.063000 3.921000 1
154763.234000 497003.250000 4.171000 1
154764.344000 497003.438000 4.313000 1
154764.141000 497002.594000 4.966000 1
154763.781000 497002.656000 4.916000 1
154764.297000 497003.281000 4.786000 1
154764.297000 497003.281000 5.651000 1
154765.844000 497003.063000 6.388000 1
154765.125000 497003.469000 6.883000 1
154765.313000 497004.281000 7.018000 1
154765.609000 497003.875000 6.969000 1
154764.703000 497003.125000 6.974000 1
154765.313000 497002.625000 7.582000 1
154764.516000 497002.344000 7.722000 1
154765.656000 497002.219000 7.095000 1
154764.859000 497002.375000 7.831000 1
154764.609000 497002.750000 7.778000 1
154764.938000 497002.688000 7.703000 1
154764.547000 497002.469000 7.029000 1
154765.219000 497003.875000 6.933000 1
154765.531000 497003.531000 7.099000 1
154766.375000 497003.750000 6.597000 1
154766.047000 497002.375000 6.873000 1
154766.047000 497003.844000 6.558000 1
154766.594000 497003.125000 6.115000 1
154766.469000 497002.625000 6.615000 1
154766.281000 497003.375000 6.600000 1
154766.219000 497003.063000 6.803000 1
154765.719000 497002.531000 6.826000 1
154764.594000 497002.719000 5.882000 1
154764.922000 497002.656000 6.630000 1
154764.344000 497001.688000 5.982000 1
154763.578000 497001.813000 6.471000 1
154765.188000 497002.125000 6.303000 1
154765.031000 497001.469000 6.458000 1
154764.922000 497001.031000 6.350000 1
154765.391000 497001.125000 6.050000 1
154765.750000 497001.156000 5.589000 1
154766.109000 497001.156000 5.782000 1
154766.859000 497000.938000 4.575000 1
154767.078000 497001.844000 4.865000 1
154766.969000 497001.375000 4.681000 1
154766.516000 497001.125000 4.875000 1
154766.203000 497001.563000 5.857000 1
154766.781000 497002.219000 4.813000 1
154766.703000 497001.938000 4.983000 1
154765.500000 497001.594000 5.465000 1
154765.984000 497002.156000 4.459000 1
154766.281000 497001.875000 4.692000 1
154765.844000 497003.063000 4.505000 1
154766.625000 497003.281000 5.456000 1
154766.422000 497002.438000 5.294000 1
154765.344000 497002.781000 5.191000 1
154765.078000 497003.313000 5.463000 1
154765.484000 497003.375000 5.705000 1
154765.188000 497003.719000 5.571000 1
154765.281000 497004.094000 5.656000 1
154766.813000 497005.563000 6.501000 1
154766.547000 497005.906000 7.122000 1
154766.656000 497006.375000 7.313000 1
154766.719000 497006.656000 6.207000 1
154767.141000 497005.469000 5.416000 1
154767.328000 497006.188000 5.342000 1
154766.531000 497005.875000 6.056000 1
154767.266000 497005.938000 5.658000 1
154765.938000 497006.875000 4.423000 1
154767.016000 497006.375000 4.842000 1
154766.938000 497006.031000 4.913000 1
154766.734000 497006.750000 5.481000 1
154766.547000 497005.938000 5.248000 1
154766.219000 497006.406000 6.080000 1
154766.297000 497006.750000 6.041000 1
154765.656000 497007.063000 5.574000 1
154765.328000 497007.500000 6.129000 1
154765.219000 497007.031000 5.876000 1
154764.891000 497007.250000 6.154000 1
154764.813000 497006.906000 6.302000 1
154765.969000 497005.406000 6.330000 1
154766.203000 497006.313000 6.763000 1
154765.516000 497006.469000 5.976000 1
154766.094000 497005.875000 6.655000 1
154765.766000 497006.156000 7.142000 1
154765.781000 497006.219000 6.291000 1
154765.641000 497005.594000 6.682000 1
154764.047000 497006.563000 6.160000 1
154765.078000 497006.469000 6.325000 1
154763.938000 497006.094000 6.803000 1
154764.734000 497006.594000 6.445000 1
154764.000000 497006.344000 6.481000 1
154764.281000 497006.375000 6.468000 1
154764.969000 497006.031000 6.118000 1
154764.203000 497006.063000 6.632000 1
154764.500000 497005.625000 6.686000 1
154764.766000 497005.156000 5.850000 1
154764.891000 497003.938000 6.098000 1
154764.328000 497004.938000 5.866000 1
154765.063000 497004.625000 5.922000 1
154764.672000 497004.813000 5.858000 1
154764.906000 497003.969000 7.076000 1
154764.219000 497004.469000 7.516000 1
154764.109000 497005.656000 7.502000 1
154764.063000 497005.406000 7.854000 1
154763.813000 497004.438000 8.120000 1
154763.906000 497004.781000 8.152000 1
154762.906000 497005.281000 8.434000 1
154763.016000 497005.688000 8.513000 1
154763.313000 497005.375000 8.291000 1
154763.438000 497005.875000 6.854000 1
154763.828000 497005.625000 7.520000 1
154763.375000 497005.656000 8.049000 1
154762.734000 497006.344000 6.970000 1
154763.031000 497005.813000 6.982000 1
154762.438000 497006.375000 6.804000 1
154762.609000 497005.844000 6.708000 1
154762.313000 497005.875000 6.609000 1
154761.906000 497006.031000 5.929000 1
154761.781000 497005.531000 6.542000 1
154761.328000 497005.125000 7.218000 1
154761.375000 497005.344000 6.837000 1
154762.875000 497005.188000 7.208000 1
154762.141000 497005.156000 7.472000 1
154762.063000 497004.844000 7.653000 1
154762.391000 497004.938000 7.308000 1
154763.125000 497004.594000 8.172000 1
154762.500000 497003.594000 7.929000 1
154762.281000 497002.719000 7.590000 1
154762.609000 497002.500000 7.577000 1
154763.328000 497002.375000 7.579000 1
154762.219000 497002.469000 7.838000 1
154762.719000 497002.906000 7.666000 1
154761.984000 497003.313000 7.671000 1
154762.375000 497003.125000 7.651000 1
154762.828000 497003.344000 7.824000 1
154762.594000 497003.969000 7.929000 1
154762.859000 497003.500000 7.389000 1
154764.125000 497004.094000 7.549000 1
154764.281000 497003.156000 7.288000 1
154764.344000 497003.438000 7.164000 1
154763.953000 497003.375000 7.617000 1
154764.016000 497003.594000 7.328000 1
154764.141000 497002.563000 6.734000 1
154763.688000 497002.281000 6.760000 1
154763.188000 497003.031000 7.236000 1
154763.813000 497002.813000 6.147000 1
154762.938000 497002.000000 6.603000 1
154762.438000 497001.781000 6.690000 1
154762.219000 497000.875000 6.391000 1
154761.906000 497001.125000 6.327000 1
154762.688000 497000.938000 6.754000 1
154763.375000 497002.625000 6.310000 1
154762.891000 497001.813000 5.195000 1
154761.625000 497001.781000 5.769000 1
154762.000000 497001.594000 5.596000 1
154762.406000 497001.625000 5.378000 1
154762.563000 497002.250000 5.965000 1
154762.969000 497002.094000 4.899000 1
154763.016000 497002.281000 4.560000 1
154762.344000 497003.000000 4.421000 1
154762.688000 497002.813000 4.639000 1
154762.594000 497002.406000 4.574000 1
154761.672000 497002.031000 4.438000 1
154761.406000 497002.156000 4.566000 1
154761.766000 497002.375000 4.397000 1
154761.000000 497002.313000 4.012000 1
154761.078000 497002.656000 3.858000 1
154761.656000 497003.188000 3.398000 1
154761.234000 497003.281000 3.643000 1
154761.734000 497003.469000 3.175000 1
154761.344000 497003.750000 2.886000 1
154760.516000 497003.938000 2.919000 1
154760.141000 497003.844000 3.616000 1
154759.688000 497003.844000 4.698000 1
154759.625000 497003.563000 5.002000 1
154760.234000 497002.719000 4.523000 1
154760.891000 497003.344000 4.435000 1
154760.516000 497001.781000 6.079000 1
154760.703000 497002.531000 6.051000 1
154760.594000 497002.094000 5.994000 1
154760.672000 497002.406000 6.793000 1
154759.906000 497002.844000 6.815000 1
154759.594000 497003.438000 6.447000 1
154760.797000 497005.031000 6.665000 1
154760.547000 497004.000000 5.898000 1
154760.344000 497003.188000 6.619000 1
154759.797000 497004.281000 6.781000 1
154760.063000 497003.469000 6.511000 1
154760.313000 497004.563000 6.479000 1
154760.234000 497004.188000 6.475000 1
154760.188000 497004.000000 6.845000 1
154761.156000 497002.906000 6.440000 1
154761.469000 497004.188000 6.904000 1
154761.891000 497004.125000 6.717000 1
154761.781000 497003.656000 6.513000 1
154762.172000 497004.063000 5.988000 1
154762.172000 497004.063000 6.836000 1
154763.484000 497004.219000 5.794000 1
154763.344000 497003.656000 7.116000 1
154763.797000 497004.344000 7.036000 1
154762.609000 497004.063000 7.161000 1
154762.688000 497004.406000 7.084000 1
154762.953000 497003.875000 6.359000 1
154762.453000 497005.188000 6.896000 1
154763.328000 497005.469000 6.752000 1
154763.656000 497004.938000 5.704000 1
154762.750000 497004.625000 6.721000 1
154763.219000 497005.031000 5.623000 1
154761.438000 497005.625000 5.695000 1
154762.234000 497004.344000 5.785000 1
154761.656000 497004.969000 6.055000 1
154762.000000 497004.563000 5.999000 1
154761.797000 497005.594000 5.684000 1
154761.688000 497005.125000 5.498000 1
154762.422000 497005.063000 5.640000 1
154763.063000 497004.344000 4.730000 1
154762.922000 497005.375000 3.854000 1
154763.234000 497005.063000 4.719000 1
154761.922000 497004.281000 4.237000 1
154762.625000 497004.156000 4.575000 1
154762.578000 497005.781000 4.565000 1
154762.734000 497004.594000 3.854000 1
154762.266000 497004.469000 5.034000 1
154762.688000 497004.438000 4.352000 1
154762.484000 497005.375000 4.475000 1
154759.891000 497004.719000 4.029000 1
154760.266000 497004.406000 4.109000 1
154760.906000 497005.563000 4.278000 1
154760.719000 497004.750000 4.140000 1
154760.219000 497006.063000 3.717000 1
154759.953000 497004.938000 3.557000 1
154760.094000 497005.563000 3.388000 1
154760.484000 497005.250000 3.471000 1
154761.844000 497005.813000 3.400000 1
154760.953000 497005.719000 3.876000 1
154761.438000 497005.594000 2.787000 1
154761.500000 497005.906000 2.549000 1
154761.016000 497005.969000 3.501000 1
154760.297000 497006.344000 3.412000 1
154760.750000 497006.406000 3.591000 1
154760.359000 497006.594000 3.208000 1
154760.891000 497006.969000 3.274000 1
154761.281000 497007.094000 3.548000 1
154761.375000 497007.500000 3.611000 1
154761.000000 497007.438000 3.493000 1
154761.734000 497006.844000 3.154000 1
154761.688000 497006.625000 2.612000 1
154761.453000 497007.781000 2.479000 1
154761.969000 497007.781000 3.571000 1
154762.844000 497006.875000 3.643000 1
154763.359000 497007.219000 3.026000 1
154762.578000 497006.969000 3.571000 1
154762.188000 497007.188000 3.203000 1
154762.297000 497007.656000 3.474000 1
154762.906000 497007.125000 3.316000 1
154762.984000 497007.438000 3.179000 1
154762.813000 497007.969000 3.315000 1
154763.109000 497007.938000 3.590000 1
154764.703000 497008.094000 3.353000 1
154763.219000 497008.438000 2.886000 1
154763.594000 497008.156000 3.699000 1
154764.422000 497008.156000 3.542000 1
154764.094000 497008.656000 2.628000 1
154763.469000 497007.656000 3.278000 1
154763.594000 497008.188000 2.743000 1
154764.016000 497008.344000 2.708000 1
154763.828000 497007.531000 3.535000 1
154765.031000 497007.875000 3.091000 1
154764.344000 497007.781000 3.541000 1
154765.266000 497007.313000 2.731000 1
154763.844000 497007.625000 2.882000 1
154764.250000 497007.438000 3.546000 1
154764.594000 497007.688000 3.313000 1
154764.281000 497006.375000 1.849000 1
154764.844000 497007.094000 2.812000 1
154764.922000 497007.406000 2.718000 1
154764.109000 497006.844000 2.051000 1
154764.906000 497007.375000 1.751000 1
154764.984000 497007.688000 1.581000 1
154765.313000 497007.500000 1.396000 1
154765.656000 497008.906000 0.334000 1
154765.313000 497009.063000 0.400000 1
154764.859000 497009.938000 0.479000 1
154763.938000 497009.625000 0.694000 1
154764.188000 497009.063000 -0.043000 1
154764.938000 497009.125000 -0.678000 1
154765.688000 497009.063000 -1.199000 1
154765.938000 497008.281000 -0.678000 1
154766.719000 497008.531000 -0.831000 1
154766.813000 497008.906000 -0.868000 1
154766.906000 497009.313000 -1.740000 1
154766.297000 497008.406000 -0.359000 1
154765.859000 497007.938000 -0.591000 1
154765.891000 497009.906000 -0.881000 1
154765.203000 497010.250000 -0.560000 1
154765.641000 497010.438000 -0.804000 1
154766.359000 497010.031000 -0.998000 1
154766.000000 497010.344000 -0.681000 1
154765.547000 497010.000000 -0.877000 1
154766.281000 497009.688000 -0.867000 1
154766.328000 497008.500000 -1.045000 1
154766.219000 497009.438000 -0.670000 1
154766.469000 497009.063000 -1.449000 1
154765.828000 497009.625000 -0.667000 1
154766.391000 497008.781000 -1.249000 1
154766.000000 497008.531000 -0.916000 1
154765.313000 497009.031000 -1.670000 1
154766.125000 497009.063000 -1.594000 1
154766.063000 497008.844000 -1.192000 1
154765.609000 497008.719000 -1.065000 1
154765.422000 497009.500000 -1.297000 1
154764.984000 497009.344000 -1.109000 1
154765.281000 497008.938000 -0.846000 1
154764.750000 497009.531000 -0.601000 1
154763.359000 497009.000000 -0.254000 1
154762.734000 497009.500000 -0.486000 1
154762.891000 497010.125000 0.233000 1
154763.453000 497010.656000 -0.135000 1
154762.734000 497009.531000 0.624000 1
154762.594000 497008.906000 0.866000 1
154763.297000 497008.750000 0.986000 1
154762.656000 497009.188000 0.638000 1
154763.391000 497010.344000 0.078000 1
154762.984000 497010.531000 0.372000 1
154762.188000 497008.781000 -0.555000 1
154762.844000 497008.156000 -0.975000 1
154762.469000 497008.375000 -0.443000 1
154762.156000 497008.594000 -0.101000 1
154763.000000 497008.781000 -0.282000 1
154763.109000 497009.188000 -0.108000 1
154763.328000 497010.094000 0.287000 1
154763.297000 497010.000000 0.974000 1
154763.594000 497010.031000 0.405000 1
154763.813000 497009.125000 0.386000 1
154763.516000 497009.688000 0.522000 1
154764.172000 497010.563000 0.213000 1
154764.844000 497009.906000 -0.472000 1
154764.047000 497010.063000 0.855000 1
154764.297000 497009.469000 0.052000 1
154764.094000 497010.281000 0.452000 1
154764.969000 497010.406000 -0.184000 1
154765.156000 497010.000000 -0.262000 1
154764.531000 497010.500000 0.745000 1
154764.438000 497010.125000 0.688000 1
154765.078000 497008.063000 0.684000 1
154764.672000 497009.188000 0.455000 1
154765.172000 497008.469000 0.673000 1
154764.172000 497009.000000 0.604000 1
154764.906000 497009.000000 0.846000 1
154764.625000 497009.000000 0.939000 1
154764.828000 497008.656000 1.005000 1
154764.453000 497007.125000 0.872000 1
154763.719000 497008.656000 1.168000 1
154764.094000 497008.656000 0.667000 1
154764.203000 497007.281000 0.359000 1
154764.625000 497007.813000 0.630000 1
154764.016000 497008.313000 0.849000 1
154763.813000 497007.469000 0.516000 1
154762.938000 497008.531000 0.953000 1
154763.609000 497008.250000 1.051000 1
154763.484000 497007.719000 0.564000 1
154762.828000 497008.031000 0.597000 1
154763.406000 497007.406000 0.715000 1
154762.734000 497007.656000 1.547000 1
154762.172000 497007.188000 1.243000 1
154762.078000 497008.281000 1.105000 1
154762.359000 497007.938000 1.176000 1
154761.906000 497007.594000 1.196000 1
154761.531000 497008.125000 1.408000 1
154761.375000 497007.500000 0.758000 1
154760.594000 497007.594000 1.009000 1
154761.328000 497007.281000 1.192000 1
154761.266000 497007.031000 1.420000 1
154760.438000 497007.000000 1.411000 1
154760.203000 497006.031000 0.761000 1
154761.125000 497006.469000 0.908000 1
154760.844000 497005.313000 0.830000 1
154760.734000 497006.344000 0.758000 1
154760.641000 497005.969000 0.679000 1
154762.719000 497006.344000 0.356000 1
154761.891000 497006.031000 -0.772000 1
154761.469000 497005.719000 0.289000 1
154761.625000 497006.438000 0.049000 1
154761.563000 497006.125000 0.269000 1
154762.531000 497005.625000 -0.575000 1
154762.266000 497005.719000 -0.624000 1
154762.344000 497004.813000 -0.759000 1
154762.344000 497004.813000 0.243000 1
154762.469000 497005.313000 -0.363000 1
154761.766000 497005.500000 -0.108000 1
154760.344000 497004.750000 -0.672000 1
154761.969000 497004.500000 -0.826000 1
154761.594000 497004.781000 -1.092000 1
154760.703000 497004.719000 -0.684000 1
154761.266000 497004.938000 -0.869000 1
154761.563000 497004.625000 -0.581000 1
154761.203000 497004.656000 0.323000 1
154761.219000 497003.219000 0.633000 1
154759.547000 497004.938000 0.981000 1
154761.063000 497004.063000 0.682000 1
154759.797000 497004.313000 0.178000 1
154759.984000 497005.063000 1.161000 1
154760.719000 497004.781000 0.468000 1
154759.906000 497004.781000 1.450000 1
154760.563000 497004.188000 0.746000 1
154760.250000 497004.344000 2.063000 1
154760.422000 497003.594000 1.137000 1
154759.813000 497004.344000 2.091000 1
154759.813000 497004.406000 1.325000 1
154759.406000 497004.406000 1.463000 1
154760.094000 497003.656000 1.318000 1
154759.328000 497004.063000 1.674000 1
154758.734000 497003.594000 1.650000 1
154760.172000 497003.969000 3.007000 1
154759.625000 497003.563000 2.067000 1
154758.406000 497003.906000 2.540000 1
154758.797000 497003.781000 3.087000 1
154758.734000 497003.563000 2.540000 1
154758.281000 497003.375000 2.982000 1
154759.047000 497002.938000 2.438000 1
154758.859000 497002.094000 2.174000 1
154759.125000 497001.531000 1.648000 1
154759.141000 497001.625000 0.895000 1
154759.891000 497001.344000 0.953000 1
154759.688000 497000.531000 0.813000 1
154760.422000 496999.938000 0.664000 1
154761.094000 496999.625000 1.230000 1
154760.969000 497000.344000 1.908000 1
154761.688000 497000.313000 1.487000 1
154760.906000 496998.875000 1.286000 1
154761.297000 496998.656000 1.069000 1
154762.047000 496998.344000 1.020000 1
154760.688000 496999.156000 1.673000 1
154761.406000 496999.125000 1.264000 1
154760.984000 496999.188000 1.066000 1
154761.234000 497000.250000 0.927000 1
154760.406000 496999.844000 1.378000 1
154760.797000 496999.656000 1.034000 1
154759.609000 497000.219000 0.960000 1
154760.234000 497000.625000 1.234000 1
154760.422000 497001.406000 1.475000 1
154759.547000 497001.406000 1.252000 1
154759.719000 497002.125000 2.054000 1
154761.391000 497002.063000 1.435000 1
154760.078000 497002.125000 1.985000 1
154761.625000 497001.844000 2.115000 1
154760.656000 497002.406000 2.071000 1
154761.344000 497001.938000 2.074000 1
154761.813000 497002.563000 3.053000 1
154761.484000 497002.469000 3.441000 1
154761.641000 497001.906000 3.215000 1
154762.391000 497001.563000 2.462000 1
154762.031000 497001.719000 3.177000 1
154761.531000 497001.438000 2.942000 1
154761.453000 497001.094000 3.048000 1
154761.891000 497001.094000 3.489000 1
154761.375000 497000.813000 3.296000 1
154762.281000 497001.156000 3.186000 1
154761.734000 497000.438000 3.571000 1
154762.922000 497000.719000 2.451000 1
154762.844000 497000.406000 2.554000 1
154762.188000 497000.781000 3.241000 1
154762.781000 497000.188000 2.898000 1
154762.438000 496999.938000 3.240000 1
154763.906000 496998.438000 2.542000 1
154763.594000 496998.531000 2.772000 1
154763.656000 496998.875000 2.614000 1
154763.078000 496999.781000 2.186000 1
154763.281000 496999.063000 2.668000 1
154762.813000 496998.688000 2.158000 1
154763.141000 496998.500000 1.242000 1
154762.344000 496998.344000 1.061000 1
154761.781000 496999.094000 0.881000 1
154761.750000 496998.969000 1.530000 1
154762.250000 496999.188000 1.342000 1
154763.000000 496999.500000 0.624000 1
