152534.594000 495288.031000 -0.092000 0
152535.516000 495288.281000 -0.188000 0
152536.125000 495288.781000 -0.796000 0
152536.063000 495289.625000 -0.329000 0
152536.797000 495289.125000 0.091000 0
152537.234000 495289.656000 -0.621000 0
152537.500000 495288.969000 -0.801000 0
152537.500000 495288.688000 -0.815000 0
152537.484000 495289.250000 -0.643000 0
152537.250000 495288.875000 -0.689000 0
152537.063000 495289.719000 -0.567000 0
152537.234000 495288.625000 -0.552000 0
152537.797000 495288.063000 0.036000 0
152537.422000 495287.469000 0.368000 0
152536.750000 495287.531000 0.847000 0
152537.328000 495288.094000 1.349000 0
152537.922000 495288.688000 0.957000 0
152538.141000 495288.563000 0.835000 0
152536.906000 495288.813000 1.415000 0
152535.938000 495288.656000 1.347000 0
152535.141000 495288.125000 1.591000 0
152535.938000 495287.594000 1.454000 0
152535.703000 495286.875000 1.578000 0
152536.203000 495286.406000 0.914000 0
152535.484000 495286.156000 0.605000 0
152535.094000 495287.063000 0.682000 0
152534.906000 495287.031000 0.634000 0
152535.250000 495286.969000 0.548000 0
152534.922000 495286.750000 0.435000 0
152535.094000 495286.844000 0.730000 0
152535.813000 495286.219000 0.451000 0
152536.250000 495286.625000 0.348000 0
152535.859000 495287.219000 -0.275000 0
152535.219000 495286.719000 -0.802000 0
152535.203000 495287.500000 -0.793000 0
152535.234000 495287.719000 -1.036000 0
152535.609000 495286.844000 -0.936000 0
152536.344000 495287.375000 -0.818000 0
152536.500000 495288.031000 -0.222000 0
152535.188000 495287.250000 -0.495000 0
152535.359000 495287.156000 -0.718000 0
152535.578000 495287.156000 -0.644000 0
152536.516000 495286.969000 -0.244000 0
152535.797000 495286.531000 0.583000 0
152536.031000 495286.750000 0.578000 0
152536.406000 495286.281000 1.162000 0
152536.031000 495286.500000 0.679000 0
152535.469000 495286.719000 0.681000 0
152536.391000 495286.563000 1.242000 0
152535.203000 495286.781000 1.089000 0
152535.719000 495287.125000 1.420000 0
152535.688000 495287.406000 1.695000 0
152535.047000 495287.406000 1.148000 0
152535.359000 495287.375000 1.864000 0
152535.188000 495287.344000 1.322000 0
152535.719000 495287.656000 1.382000 0
152535.328000 495287.688000 2.040000 0
152535.172000 495287.594000 1.359000 0
152535.328000 495288.219000 2.075000 0
152535.016000 495287.688000 1.482000 0
152535.391000 495287.906000 1.305000 0
152535.922000 495287.906000 1.681000 0
152535.906000 495288.188000 1.802000 0
152536.141000 495288.125000 1.388000 0
152535.953000 495288.375000 1.185000 0
152535.703000 495288.719000 1.378000 0
152537.703000 495288.688000 0.980000 0
152537.063000 495288.781000 1.416000 0
152537.297000 495288.625000 1.626000 0
152536.922000 495288.531000 1.333000 0
152537.078000 495288.531000 1.318000 0
152536.906000 495288.281000 1.530000 0
152537.063000 495288.281000 1.663000 0
152537.313000 495288.375000 1.432000 0
152536.031000 495287.031000 0.629000 0
152536.750000 495288.375000 0.842000 0
152536.359000 495288.156000 1.227000 0
152536.141000 495287.563000 1.382000 0
152536.016000 495287.281000 0.708000 0
152536.203000 495286.969000 0.852000 0
152536.406000 495286.844000 1.000000 0
152537.094000 495288.000000 1.339000 0
152536.703000 495288.125000 1.295000 0
152536.359000 495287.656000 1.458000 0
152536.203000 495287.219000 0.762000 0
152536.188000 495287.781000 0.953000 0
152536.391000 495287.906000 0.986000 0
152536.438000 495287.281000 0.564000 0
152536.719000 495287.844000 1.194000 0
152536.969000 495287.938000 0.870000 0
152537.125000 495287.469000 1.051000 0
152536.969000 495287.656000 0.910000 0
152536.781000 495287.281000 0.635000 0
152536.969000 495287.438000 0.923000 0
152537.141000 495287.188000 0.951000 0
152537.047000 495287.094000 0.054000 0
152537.141000 495287.688000 0.840000 0
152537.406000 495287.250000 0.607000 0
152537.406000 495287.750000 0.591000 0
152537.984000 495287.563000 0.515000 0
152537.953000 495288.375000 0.661000 0
152538.156000 495288.281000 0.594000 0
152538.188000 495288.000000 0.389000 0
152537.984000 495287.813000 0.436000 0
152537.750000 495288.375000 0.432000 0
152537.984000 495288.094000 0.373000 0
152537.781000 495287.781000 0.155000 0
152537.094000 495289.219000 -0.756000 0
152537.234000 495289.406000 -0.598000 0
152537.078000 495289.500000 -0.626000 0
152537.234000 495289.156000 -0.621000 0
152537.000000 495288.438000 0.371000 0
152536.453000 495288.625000 0.137000 0
152537.172000 495288.688000 0.288000 0
152536.813000 495288.531000 0.005000 0
152537.016000 495288.688000 0.190000 0
152536.984000 495289.031000 0.488000 0
152536.781000 495288.844000 0.263000 0
152535.547000 495289.813000 -0.853000 0
152536.047000 495289.875000 -0.234000 0
152535.625000 495288.719000 -1.527000 0
152535.875000 495289.625000 -0.788000 0
152536.281000 495289.563000 -0.460000 0
152535.609000 495288.469000 -1.266000 0
152535.563000 495289.281000 -0.819000 0
152536.531000 495289.344000 -0.853000 0
152535.906000 495289.313000 -1.164000 0
152536.281000 495289.281000 -0.414000 0
152535.938000 495288.500000 -1.306000 0
152536.094000 495289.313000 -0.581000 0
152536.516000 495289.094000 -0.648000 0
152535.922000 495288.781000 -1.237000 0
152535.906000 495289.063000 -1.104000 0
152536.516000 495288.844000 -0.577000 0
152536.125000 495289.063000 -0.874000 0
152536.313000 495289.000000 -0.781000 0
152536.313000 495288.750000 -0.770000 0
152536.453000 495288.344000 0.130000 0
152535.563000 495289.031000 -0.822000 0
152535.344000 495287.438000 -0.591000 0
152536.266000 495288.500000 -0.208000 0
152536.063000 495288.563000 -0.026000 0
152535.813000 495288.594000 0.109000 0
152534.984000 495287.250000 -0.342000 0
152535.234000 495288.031000 0.520000 0
152534.609000 495287.250000 -0.150000 0
152535.297000 495288.250000 -0.109000 0
152534.984000 495287.500000 -0.348000 0
152534.625000 495287.500000 -0.358000 0
152535.109000 495288.094000 0.171000 0
152534.641000 495287.750000 -0.520000 0
152534.969000 495287.781000 -0.261000 0
152534.969000 495288.094000 -0.213000 0
152545.063000 495283.125000 -0.577000 1
152545.766000 495283.125000 0.059000 1
152545.922000 495283.156000 0.984000 1
152546.109000 495282.188000 0.908000 1
152546.844000 495282.281000 0.328000 1
152546.922000 495281.906000 -0.523000 1
152547.766000 495281.781000 -1.015000 1
152548.438000 495282.406000 -0.643000 1
152549.031000 495283.125000 -0.321000 1
152548.281000 495283.500000 -0.746000 1
152547.766000 495283.063000 -1.460000 1
152547.594000 495283.031000 -2.421000 1
152546.688000 495283.281000 -2.527000 1
152547.047000 495284.188000 -2.362000 1
152546.594000 495284.156000 -1.633000 1
152545.859000 495284.094000 -1.223000 1
152545.797000 495284.906000 -0.669000 1
152546.484000 495285.594000 -0.697000 1
152546.813000 495285.219000 0.009000 1
152546.453000 495284.313000 0.017000 1
152547.313000 495284.375000 0.517000 1
152547.656000 495284.438000 -0.413000 1
152548.000000 495285.250000 -0.769000 1
152548.344000 495285.125000 -0.146000 1
152548.328000 495284.875000 -0.024000 1
152548.219000 495284.875000 -0.368000 1
152547.391000 495283.781000 -0.353000 1
152548.016000 495284.750000 -0.821000 1
152548.234000 495284.594000 -0.449000 1
152547.188000 495284.219000 -0.715000 1
152547.406000 495284.844000 -0.757000 1
152547.422000 495284.531000 -0.866000 1
152548.000000 495284.469000 -0.595000 1
152547.656000 495284.719000 -0.520000 1
152548.141000 495283.906000 0.800000 1
152547.547000 495283.281000 1.151000 1
152546.719000 495283.469000 1.647000 1
152547.031000 495282.531000 1.573000 1
152546.266000 495284.219000 2.105000 1
152546.688000 495284.813000 1.568000 1
152547.219000 495284.469000 1.625000 1
152547.422000 495284.406000 2.256000 1
152547.453000 495284.125000 2.004000 1
152546.984000 495284.438000 1.728000 1
152545.609000 495284.031000 1.643000 1
152546.703000 495284.531000 1.517000 1
152547.188000 495284.250000 1.917000 1
152546.703000 495282.688000 1.962000 1
152546.719000 495284.219000 1.403000 1
152547.016000 495284.156000 1.449000 1
152546.984000 495283.938000 1.851000 1
152546.719000 495283.719000 1.541000 1
152546.813000 495283.375000 0.555000 1
152547.469000 495283.875000 1.807000 1
152548.172000 495282.813000 0.753000 1
152548.906000 495283.000000 1.084000 1
152548.875000 495283.531000 1.382000 1
152549.156000 495284.313000 0.885000 1
152549.203000 495284.000000 0.456000 1
152548.875000 495283.281000 1.411000 1
152548.203000 495283.031000 0.285000 1
152547.953000 495282.438000 0.566000 1
152548.266000 495282.844000 1.309000 1
152547.000000 495283.344000 1.740000 1
152547.234000 495283.656000 1.624000 1
152547.094000 495283.250000 0.662000 1
152547.328000 495283.281000 0.532000 1
152547.250000 495282.875000 1.550000 1
152547.531000 495282.750000 1.493000 1
152547.516000 495283.063000 1.589000 1
152548.859000 495284.125000 1.350000 1
152548.328000 495283.063000 0.538000 1
152548.078000 495283.438000 1.531000 1
152548.078000 495284.469000 1.425000 1
152548.250000 495283.375000 1.283000 1
152548.250000 495284.438000 1.083000 1
152548.172000 495283.594000 0.417000 1
152547.906000 495283.531000 0.738000 1
152548.297000 495283.594000 0.710000 1
152548.266000 495284.188000 0.863000 1
152548.281000 495283.906000 0.815000 1
152547.359000 495283.531000 0.077000 1
152547.594000 495283.469000 0.447000 1
152546.750000 495283.938000 1.145000 1
152548.125000 495284.188000 0.918000 1
152547.109000 495283.531000 0.460000 1
152547.906000 495283.813000 0.664000 1
152547.609000 495283.719000 0.214000 1
152547.891000 495284.094000 0.781000 1
152547.891000 495284.313000 0.838000 1
152547.344000 495283.813000 0.198000 1
152547.609000 495283.969000 0.217000 1
152547.594000 495284.500000 0.189000 1
152547.172000 495283.750000 -0.360000 1
152547.172000 495283.969000 -0.353000 1
152546.094000 495284.281000 0.647000 1
152545.344000 495284.844000 0.629000 1
152545.688000 495285.531000 0.446000 1
152545.719000 495286.031000 -0.017000 1
152545.156000 495284.469000 0.071000 1
152545.344000 495285.125000 0.664000 1
152545.109000 495284.781000 0.558000 1
152545.359000 495284.594000 0.507000 1
152546.844000 495284.125000 0.029000 1
152546.438000 495284.063000 0.246000 1
152547.297000 495284.656000 0.537000 1
152547.625000 495285.000000 -0.164000 1
152547.094000 495284.563000 0.390000 1
152546.469000 495286.125000 -0.551000 1
152546.453000 495285.875000 -0.366000 1
152546.172000 495285.781000 -0.602000 1
152545.219000 495284.188000 -0.438000 1
152546.000000 495285.719000 -0.529000 1
152546.469000 495285.344000 -0.446000 1
152545.781000 495285.688000 -0.710000 1
152546.516000 495284.750000 -0.805000 1
152546.172000 495285.531000 -0.652000 1
152546.469000 495285.063000 -0.448000 1
152545.484000 495285.281000 -1.070000 1
152545.422000 495284.781000 -0.243000 1
152546.016000 495285.438000 -0.732000 1
152545.766000 495285.438000 -0.554000 1
152546.188000 495285.250000 -0.627000 1
152545.750000 495285.219000 -0.289000 1
152546.188000 495284.750000 -0.540000 1
152546.188000 495285.000000 -0.636000 1
152546.031000 495285.156000 -0.782000 1
152546.000000 495284.875000 -0.409000 1
152545.469000 495284.719000 -0.804000 1
152545.453000 495284.281000 -0.540000 1
152546.031000 495284.344000 -0.513000 1
152545.797000 495284.625000 -0.686000 1
152545.500000 495283.969000 -1.011000 1
152545.828000 495284.375000 -0.909000 1
152546.109000 495283.719000 -1.256000 1
152546.266000 495283.594000 -1.288000 1
152546.234000 495284.438000 -1.077000 1
152546.109000 495283.969000 -1.485000 1
152546.297000 495283.813000 -1.574000 1
152546.563000 495284.469000 -1.338000 1
152546.281000 495284.094000 -1.445000 1
152546.609000 495283.875000 -1.839000 1
152547.063000 495283.875000 -2.512000 1
152546.203000 495283.625000 -2.366000 1
152546.672000 495283.563000 -2.397000 1
152546.953000 495283.219000 -1.143000 1
152546.984000 495283.469000 -1.475000 1
152547.328000 495282.500000 -1.864000 1
152547.297000 495283.344000 -1.676000 1
152547.813000 495283.250000 -1.952000 1
152548.516000 495283.938000 -2.015000 1
152548.375000 495283.938000 -1.964000 1
152547.766000 495282.781000 -1.348000 1
152548.109000 495283.875000 -1.594000 1
152548.109000 495283.594000 -1.663000 1
152547.719000 495284.125000 -1.088000 1
152547.734000 495283.844000 -1.292000 1
152548.047000 495284.156000 -1.071000 1
152548.094000 495283.375000 -1.284000 1
152548.375000 495283.531000 -0.278000 1
152548.641000 495283.781000 -0.231000 1
152549.219000 495283.406000 0.293000 1
152548.984000 495283.688000 0.047000 1
152548.625000 495283.531000 -0.135000 1
152549.281000 495283.125000 -0.247000 1
152548.656000 495283.250000 -0.385000 1
152548.391000 495283.250000 -0.365000 1
152549.016000 495282.594000 -0.008000 1
152548.078000 495283.094000 -1.052000 1
152548.266000 495283.250000 -0.538000 1
152548.094000 495282.875000 -1.137000 1
152548.328000 495282.906000 -1.142000 1
152548.406000 495281.938000 -0.222000 1
152548.656000 495282.719000 -0.205000 1
152548.438000 495282.938000 -0.734000 1
152548.672000 495282.156000 -0.321000 1
152548.313000 495282.656000 -0.858000 1
152548.688000 495282.406000 -0.425000 1
152548.438000 495282.656000 -0.666000 1
152548.266000 495282.156000 -0.336000 1
152547.797000 495280.906000 -1.238000 1
152548.438000 495282.156000 -0.550000 1
152548.297000 495282.375000 -0.699000 1
152548.078000 495282.563000 -1.023000 1
152547.531000 495282.344000 -1.487000 1
152547.313000 495281.938000 -1.560000 1
152547.766000 495282.000000 -1.179000 1
152547.703000 495281.563000 -0.278000 1
152546.078000 495281.656000 -0.464000 1
152545.828000 495282.000000 -0.398000 1
152547.516000 495281.844000 -1.168000 1
152547.266000 495281.188000 -0.853000 1
152547.500000 495282.094000 -1.088000 1
152546.266000 495281.500000 -0.765000 1
152547.469000 495281.375000 -0.602000 1
152546.250000 495281.750000 -0.679000 1
152547.484000 495281.656000 -0.763000 1
152547.266000 495281.469000 -0.840000 1
152546.969000 495281.375000 -0.859000 1
152546.984000 495281.844000 -1.105000 1
152546.969000 495281.625000 -0.955000 1
152547.609000 495282.406000 0.617000 1
152547.391000 495282.750000 -0.073000 1
152547.125000 495282.969000 0.301000 1
152546.516000 495282.125000 -0.260000 1
152546.813000 495282.844000 0.550000 1
152547.375000 495282.500000 0.159000 1
152546.484000 495282.406000 -0.015000 1
152547.141000 495282.688000 0.236000 1
152547.156000 495282.406000 0.150000 1
152547.141000 495282.125000 0.454000 1
152546.859000 495282.531000 0.201000 1
152546.469000 495281.875000 0.273000 1
152546.328000 495283.906000 1.481000 1
152546.750000 495283.156000 1.272000 1
152545.922000 495282.344000 1.115000 1
152546.078000 495283.781000 0.864000 1
152546.391000 495282.750000 1.002000 1
152546.359000 495283.063000 1.407000 1
152546.078000 495282.750000 1.157000 1
152546.063000 495283.563000 1.133000 1
152545.688000 495282.906000 1.040000 1
152546.063000 495283.281000 1.241000 1
152546.422000 495283.563000 0.562000 1
152546.141000 495282.438000 0.525000 1
152546.094000 495282.969000 0.870000 1
152546.422000 495283.281000 0.537000 1
152545.703000 495283.688000 0.612000 1
152546.484000 495282.938000 -0.083000 1
152545.391000 495282.750000 0.528000 1
152545.938000 495283.406000 0.648000 1
152546.000000 495282.531000 0.256000 1
152545.969000 495283.625000 0.410000 1
152546.172000 495282.656000 0.047000 1
152546.156000 495282.906000 0.231000 1
152546.000000 495282.781000 0.158000 1
152546.172000 495283.156000 -0.063000 1
152545.750000 495283.406000 0.253000 1
152545.984000 495283.094000 0.283000 1
152545.469000 495282.406000 -0.327000 1
152545.250000 495283.906000 -0.752000 1
152545.484000 495283.688000 -0.695000 1
152545.203000 495283.438000 -0.084000 1
152545.484000 495283.438000 -0.641000 1
152545.484000 495282.938000 -0.554000 1
152545.469000 495283.188000 -0.498000 1
152545.234000 495282.875000 -0.359000 1
152545.234000 495283.156000 -0.539000 1
